ply
format ascii 1.0
element vertex 246
property float x
property float y
property float z
property float nx
property float ny
property float nz
end_header
29.204380 -354.878571 373.126678 0.802383 -0.556464 -0.215708
4.770318 -357.716675 385.187714 -0.724954 0.051230 0.686890
4.520655 -341.175446 390.555420 -0.683165 0.409515 0.604635
1.550594 -340.944702 385.212524 -0.878799 -0.169898 0.445923
2.058719 -232.451721 261.629974 0.108546 0.787096 0.607205
-43.712551 -395.026306 389.405853 -0.541779 -0.840509 0.004578
-24.672720 -371.484619 363.423737 0.301388 -0.048017 -0.952292
-33.534962 -391.387848 376.388885 0.027436 -0.848776 -0.528039
9.657437 -308.656372 356.458588 -0.028892 0.741909 0.669878
16.466490 -315.492981 361.405823 0.500846 0.700481 0.508409
-1.093041 -306.261292 313.169861 -0.003391 -0.751924 -0.659241
-40.878471 -365.216125 400.730591 -0.340607 0.469913 0.814351
24.723551 -329.806702 370.757874 0.870516 0.453859 0.190299
21.857050 -359.139526 394.322968 0.697604 -0.178555 0.693878
20.405029 -328.418610 375.447449 0.642119 0.608443 0.466348
10.648667 -300.259766 348.643219 0.269419 0.821296 0.502877
12.872370 -243.238693 257.661560 0.996493 0.082694 0.012758
12.364980 -230.387619 243.901962 0.998964 0.039073 -0.023310
1.297867 -289.836914 295.635956 0.101925 -0.757200 -0.645181
-18.990049 -380.277710 402.064056 0.784933 -0.003700 0.619570
17.178089 -324.564026 341.063202 0.734033 -0.339355 -0.588246
17.900909 -339.672363 352.485474 0.256555 -0.496877 -0.829031
-25.428150 -307.601837 340.309875 -0.667584 -0.106888 -0.736822
10.192616 -327.378998 379.932739 0.151281 0.723527 0.673515
-13.336290 -313.979889 333.730347 -0.910293 -0.187307 -0.369165
17.982170 -307.754150 338.951111 0.959701 0.280816 -0.010791
-39.360130 -355.297241 390.298553 -0.217636 0.905901 0.363286
-10.186530 -344.780273 377.144806 -0.247245 0.473405 0.845434
-1.678167 -347.174805 379.779694 -0.080717 0.137350 0.987228
9.226970 -317.724182 366.310425 0.043168 0.826194 0.561729
-0.342303 -225.261093 253.351761 0.128868 0.764532 0.631573
-30.408880 -361.583527 363.621399 -0.049449 0.323356 -0.944985
-24.101509 -381.503296 406.817047 0.412705 -0.172995 0.894286
-5.240952 -282.857635 317.750336 -0.452848 0.776355 0.438408
-22.237141 -362.811279 364.188110 0.158280 0.151611 -0.975685
12.360460 -349.712250 360.028412 0.128867 -0.588328 -0.798288
9.957181 -265.276794 297.282959 0.417623 0.733083 0.536825
14.331560 -263.976318 284.288818 0.996847 0.073730 -0.029334
23.876810 -330.387268 354.149780 0.923880 0.280394 -0.260433
10.932371 -209.490189 215.267899 0.949334 -0.208052 -0.235542
-45.096100 -383.051605 405.643768 -0.528369 -0.189553 0.827585
-13.068930 -259.586670 276.707062 -0.957920 0.201672 0.204247
-21.727949 -350.873322 381.129395 -0.186914 0.800992 0.568748
-37.426941 -395.956085 386.295197 -0.127582 -0.982396 -0.136459
-5.151049 -228.309647 254.533295 -0.494154 0.642883 0.585247
-24.336269 -367.934692 401.823456 0.565672 0.356648 0.743517
5.959978 -242.302597 242.968933 0.538674 -0.628029 -0.561614
-32.241150 -394.674530 403.998016 0.182148 -0.721782 0.667722
-16.638840 -353.490692 360.345306 -0.140541 -0.406016 -0.902995
1.884350 -252.761597 252.857147 0.180704 -0.759693 -0.624670
-51.733921 -379.122192 387.833038 -0.939591 -0.318350 0.125783
21.915529 -322.975616 361.877289 0.859374 0.499313 0.110287
15.780440 -283.239655 306.010559 0.989245 -0.068812 -0.129068
-36.737030 -375.948334 407.244537 -0.123656 0.065032 0.990192
-21.796221 -316.871185 345.318359 -0.508880 -0.483017 -0.712556
-17.007290 -363.708923 365.599823 0.270926 -0.152091 -0.950509
-8.746868 -245.425018 268.807159 -0.720255 0.516517 0.463080
-5.856830 -298.839630 306.406494 -0.296747 -0.720526 -0.626725
9.603662 -216.011230 234.521942 0.862752 0.409122 0.297118
10.932430 -257.926086 265.288422 0.795975 -0.454217 -0.400139
-28.373699 -394.707275 382.958221 0.284428 -0.927309 -0.243307
-16.912439 -297.829010 334.065186 -0.731402 0.601741 -0.320871
-13.091760 -270.907593 288.277557 -0.967892 0.197128 0.155967
-33.764568 -356.870941 366.692749 -0.356111 0.609768 -0.708074
-14.665240 -379.088043 392.249329 0.864701 -0.030958 0.501333
14.901620 -271.419006 297.943420 0.924168 0.345882 0.162111
-52.558270 -380.939209 397.466248 -0.908205 -0.265645 0.323413
-11.575100 -251.956390 257.840668 -0.829327 -0.434417 -0.351424
-10.477260 -316.721741 360.591644 -0.380726 0.443530 0.811375
-12.555340 -265.702240 275.006561 -0.875482 -0.384288 -0.293009
12.043360 -365.848785 399.410797 0.073045 -0.568988 0.819095
25.105490 -346.728485 357.933228 0.501364 -0.560973 -0.658744
2.098664 -253.015610 285.012360 -0.083332 0.766934 0.636292
-14.062820 -225.025543 237.401764 -0.923678 0.271075 0.270810
-37.360611 -354.487640 374.233948 -0.410883 0.854156 -0.318735
-0.310566 -320.152588 368.850311 -0.397268 0.687274 0.608139
-41.420292 -392.946777 403.511963 -0.375292 -0.690780 0.618044
-14.390360 -339.939331 351.055328 -0.458066 -0.455412 -0.763397
-14.322850 -327.129181 342.580994 -0.836607 -0.202503 -0.508999
5.147717 -241.764648 271.547394 0.330090 0.753222 0.568944
12.989180 -270.687622 283.649048 0.921689 -0.274209 -0.274405
-20.026119 -358.843872 390.368164 0.383826 0.689347 0.614393
16.480949 -308.776123 352.495331 0.860477 0.485305 0.155110
9.391497 -366.034607 393.344482 -0.715539 -0.674802 0.180682
6.533335 -249.958374 280.501587 0.443666 0.717292 0.537264
6.298101 -368.273010 385.117859 -0.256150 -0.517951 0.816158
31.806980 -349.233612 369.121185 0.932483 -0.330666 -0.145379
-10.287760 -318.281982 330.928619 -0.702328 -0.444020 -0.556400
-8.921771 -305.402435 315.658234 -0.726597 -0.518761 -0.450492
-11.020090 -294.667786 306.372864 -0.872973 -0.383463 -0.301453
-7.770572 -321.813812 332.513763 -0.406473 -0.665567 -0.625940
1.961407 -194.350555 217.797089 0.283284 0.722299 0.630900
22.903339 -349.036591 391.466003 0.769211 0.257955 0.584615
6.086462 -327.049988 379.951202 -0.136608 0.742136 0.656180
-21.143200 -301.642670 346.718262 -0.251172 0.863828 0.436707
-55.960529 -372.879639 384.531342 -0.948991 -0.270869 0.161389
-11.819550 -305.503601 321.742004 -0.951586 -0.228607 -0.205480
5.950908 -293.840607 336.432068 0.043692 0.892687 0.448554
0.438530 -270.837402 273.534119 0.020206 -0.772535 -0.634651
7.392502 -331.872681 342.849060 0.196239 -0.686901 -0.699755
-4.207897 -330.068359 372.226379 -0.716944 0.271344 0.642156
13.231040 -354.700958 399.856323 0.359346 -0.006538 0.933182
-7.300576 -277.390106 308.448029 -0.577583 0.689764 0.436604
-5.596228 -226.562851 224.542526 -0.295483 -0.711402 -0.637650
-9.690850 -377.003815 381.735107 0.839937 -0.542421 0.016878
-5.463313 -370.298126 374.123230 0.175865 -0.805238 -0.566271
-20.738390 -331.181030 355.817230 -0.960581 0.045472 -0.274256
20.535669 -353.731995 363.596375 0.303426 -0.640408 -0.705556
-49.191650 -362.378113 393.251526 -0.669996 0.598586 0.439089
-28.049410 -313.819916 346.251862 -0.896953 -0.329228 -0.295102
-20.753330 -324.100189 351.172455 -0.798356 -0.444295 -0.406485
-2.683721 -368.506226 385.340088 0.248377 -0.343664 0.905651
-13.221860 -294.517853 325.178253 -0.973553 0.162589 -0.160499
8.256090 -347.750916 382.501617 -0.865687 -0.177334 0.468123
-30.566019 -358.656891 396.257263 0.115285 0.823842 0.554971
7.225807 -220.074921 220.258408 0.637508 -0.567502 -0.521080
7.591987 -348.422943 398.394257 -0.035516 0.480548 0.876249
-3.347864 -199.631439 224.828003 -0.074295 0.750573 0.656598
3.844177 -214.713211 239.664993 0.533229 0.653482 0.537241
-7.201632 -216.146423 240.258224 -0.652820 0.550263 0.520612
-33.162689 -353.365234 380.872314 -0.183991 0.979937 -0.076617
-27.927380 -312.771484 350.810669 -0.870603 0.033650 0.490834
24.126471 -365.754822 378.600037 0.665151 -0.715544 -0.213471
1.977426 -359.863068 365.187439 0.116377 -0.501943 -0.857035
-0.467695 -234.261108 232.121002 0.152340 -0.734211 -0.661609
-8.918509 -308.032990 352.476318 -0.085315 0.782292 0.617042
-12.177390 -385.623749 386.836029 0.850711 -0.524430 0.035568
-19.682470 -393.027954 389.082153 0.589436 -0.805031 0.067012
-29.796680 -370.548096 405.087799 0.126178 0.342111 0.931149
3.656346 -345.664246 389.446289 -0.979935 -0.118867 -0.159996
-11.478730 -293.218414 329.676483 -0.516730 0.832164 0.201229
3.416606 -371.068451 380.523834 0.117757 -0.928876 0.351174
-24.780741 -342.437134 366.992676 -0.801519 0.579299 0.148257
-56.084099 -368.835724 378.666504 -0.962109 0.159912 -0.220849
-8.778461 -349.661530 357.101501 -0.021102 -0.540000 -0.841400
8.251962 -287.523621 327.098145 0.383652 0.795014 0.469854
-6.903816 -243.276794 243.596085 -0.352409 -0.721296 -0.596272
-13.733210 -255.600494 268.251617 -0.993115 -0.088946 -0.076226
-13.484950 -247.854706 262.656677 -0.994430 0.079749 0.068917
-2.217164 -302.001648 345.431671 -0.169929 0.810014 0.561250
13.881450 -255.392654 273.978790 0.995875 0.089270 -0.016260
-25.405020 -354.296265 362.647888 -0.341801 0.057378 -0.938019
-1.543601 -241.474884 271.060577 -0.336002 0.714199 0.614022
-14.419440 -385.434448 379.538910 0.733945 -0.596951 -0.323998
-23.706310 -344.041779 359.404358 -0.829158 0.193308 -0.524528
-50.719009 -388.620789 394.453918 -0.837305 -0.477598 0.266119
15.958790 -365.423096 373.248138 0.343985 -0.583606 -0.735580
10.518921 -251.073761 278.250854 0.778894 0.533212 0.330165
12.651550 -261.576385 289.350067 0.822909 0.486587 0.293348
-19.633631 -367.367279 396.290771 0.721529 0.208747 0.660167
0.638306 -327.453003 377.956879 -0.702163 0.413302 0.579783
-37.197552 -377.953339 364.585297 -0.178521 -0.261871 -0.948448
5.319426 -367.584229 369.872253 0.170736 -0.630471 -0.757203
28.832991 -341.815796 357.432343 0.745003 -0.099748 -0.659561
-18.245840 -340.526276 370.620605 -0.501629 0.569737 0.650975
-27.257059 -354.016266 385.253387 -0.045427 0.956111 0.289463
11.663230 -301.650085 313.811493 0.693617 -0.520306 -0.498174
28.187269 -350.497253 383.754547 0.917394 0.053973 0.394304
12.861500 -273.477295 305.428528 0.596403 0.688137 0.413244
15.921030 -295.841736 329.307861 0.891400 0.394364 0.223344
-32.774090 -386.619904 408.101898 -0.029805 -0.364451 0.930746
-49.642399 -383.059814 374.740265 -0.720597 -0.580899 -0.378546
-10.568980 -363.986511 367.919250 0.197489 -0.482225 -0.853497
10.659860 -203.921875 218.378555 0.926889 0.297720 0.228561
1.897604 -352.429016 395.587799 -0.991459 0.127018 -0.029575
16.960079 -290.027344 318.694397 0.988161 0.149738 0.033404
12.108660 -372.857056 383.445251 -0.082403 -0.958381 0.273341
-35.559990 -397.458984 396.430389 -0.115257 -0.949494 0.291852
-42.219830 -387.693726 373.501129 -0.358306 -0.715115 -0.600190
-24.579460 -301.275085 341.528839 -0.838010 0.508810 -0.197108
5.039676 -265.632660 268.838928 0.313671 -0.728010 -0.609600
9.199045 -278.100616 285.914185 0.537422 -0.645477 -0.542712
-2.014353 -325.993683 335.110199 -0.011336 -0.740052 -0.672454
18.586189 -317.468201 339.301941 0.955421 -0.055569 -0.289971
-2.508901 -279.674774 284.211182 -0.194168 -0.750450 -0.631762
-11.276380 -235.400742 254.450165 -0.842999 0.397730 0.362164
6.270087 -310.134399 319.271881 0.322880 -0.705317 -0.631092
8.002409 -235.463425 237.571671 0.736902 -0.489445 -0.466282
-46.015491 -355.157379 384.536713 -0.410942 0.911476 0.018389
-12.320840 -297.437012 315.213409 -0.993065 -0.093174 -0.071693
-24.654699 -308.117828 350.983246 -0.572140 0.425484 0.701155
15.333620 -283.984283 316.320221 0.813471 0.489381 0.314279
31.946329 -342.843811 366.034637 0.987718 0.155943 -0.009693
9.208955 -370.331024 374.763428 0.209749 -0.923706 -0.320581
-31.250719 -351.547760 375.483246 -0.453914 0.890340 0.035465
2.801725 -275.549988 311.816681 -0.080216 0.818237 0.569257
-51.041100 -370.841919 397.990265 -0.726692 0.189974 0.660173
-26.373091 -396.528595 393.700043 0.271131 -0.937313 0.218935
-51.203308 -386.068024 385.503357 -0.869899 -0.485601 0.086417
4.357296 -352.151306 381.018127 -0.377763 0.188458 0.906520
-13.140570 -358.325287 387.289520 0.290804 0.351539 0.889861
-55.350491 -370.540466 390.379547 -0.951978 0.191692 0.238729
-50.300911 -358.464844 373.068787 -0.540062 0.688374 -0.484226
9.440452 -234.031219 257.034119 0.731381 0.561388 0.387202
-16.320780 -304.477081 334.237762 -0.739701 -0.110524 -0.663797
25.875389 -357.980194 387.684845 0.903211 -0.282085 0.323479
-49.117222 -374.873016 368.339874 -0.697782 -0.125566 -0.705219
10.324862 -369.460724 388.046844 -0.658335 -0.577432 0.482875
-4.460049 -341.471588 377.583435 -0.518771 0.049388 0.853486
-30.767981 -352.473816 367.196686 -0.674667 0.538947 -0.504341
-12.113740 -366.753876 389.198700 0.603481 -0.098094 0.791321
-16.883650 -322.472870 345.816528 -0.817839 -0.234246 -0.525612
2.144542 -287.174774 326.865204 -0.103888 0.855205 0.507771
-1.231005 -264.217316 296.930328 -0.356172 0.747813 0.560283
-0.489446 -360.401031 384.473846 0.012357 0.061663 0.998021
11.496790 -242.883514 250.581253 0.890088 -0.321023 -0.323555
-9.134990 -277.097229 283.988953 -0.549775 -0.643247 -0.532899
-4.866264 -260.532990 262.503479 -0.292764 -0.740475 -0.604968
-51.260750 -358.147064 380.203796 -0.708537 0.699487 -0.093238
-19.959990 -332.997894 363.069489 -0.801871 0.325048 0.501344
1.623800 -357.621155 400.283234 -0.942369 -0.306485 0.134194
-35.189270 -369.471252 362.012939 -0.029117 0.131024 -0.990952
-16.582760 -318.749023 358.717438 -0.570212 0.146197 0.808384
5.210258 -362.585663 400.212860 -0.444004 -0.649318 0.617451
-11.051080 -284.872101 313.859772 -0.829205 0.511139 0.226177
12.212780 -297.370361 339.182434 0.681512 0.684898 0.257791
-12.465570 -372.051849 371.940521 0.594070 -0.398822 -0.698586
-6.119263 -200.787933 225.016937 -0.456554 0.651142 0.606278
-10.930050 -276.399536 301.711548 -0.813749 0.491399 0.310386
-17.584070 -337.341553 351.686890 -0.711324 -0.147479 -0.687218
5.696199 -356.475067 389.167389 -0.972738 -0.177566 -0.149171
-54.461079 -379.675262 379.434296 -0.929744 -0.307347 -0.202765
-12.106540 -288.315704 313.576050 -0.980781 0.183496 0.066310
-9.792610 -374.643402 385.964691 0.550921 -0.500479 0.667838
7.971391 -293.847137 302.302948 0.375780 -0.697869 -0.609728
-17.350870 -389.549072 397.239471 0.561720 -0.613789 0.554737
14.834540 -291.032013 309.052521 0.924080 -0.245443 -0.292973
3.697146 -354.937958 401.805664 -0.382884 0.075636 0.920695
-21.446360 -323.378906 354.609070 -0.931676 -0.227070 0.283582
-12.944750 -272.832977 285.019135 -0.955898 -0.235078 -0.176062
-7.008145 -336.013519 345.606934 -0.143872 -0.656433 -0.740538
-13.850410 -386.355804 395.511963 0.867573 -0.290695 0.403502
14.264970 -305.022949 320.493011 0.796561 -0.389020 -0.462767
-1.549184 -214.588516 241.457047 -0.107740 0.747697 0.655241
15.976000 -348.081177 396.400360 0.476816 0.347992 0.807186
-12.481910 -328.310547 365.523834 -0.527205 0.334992 0.780920
12.036910 -219.605438 228.684387 0.987537 -0.106671 -0.115720
17.089190 -371.237915 393.183105 0.223363 -0.813944 0.536288
21.935640 -334.159149 350.849487 0.686256 -0.199868 -0.699361
-14.175170 -240.016739 251.487274 -0.998591 -0.052957 -0.003266
-10.622910 -299.349945 341.432465 -0.049152 0.874013 0.483411
-43.433430 -364.550140 363.383636 -0.325915 0.320990 -0.889238
-29.036779 -381.901611 367.164734 0.128936 -0.541884 -0.830505
13.159950 -325.128937 338.524445 0.516751 -0.550141 -0.655983
-20.975630 -385.240265 372.814209 0.476987 -0.589382 -0.652006
-6.808520 -256.862427 283.951080 -0.675343 0.568741 0.469516
