ply
format ascii 1.0
element vertex 135
property float x
property float y
property float z
property float nx
property float ny
property float nz
end_header
-1.630041 13.344428 22.064535 -0.730164 0.656166 -0.190542
0.391964 -69.082947 71.439377 0.225934 -0.682881 -0.694714
-13.232280 -16.186365 36.532860 -0.722608 0.201131 0.661350
14.288900 4.871995 21.700996 0.972881 0.020496 -0.230395
-8.672775 -54.013229 62.153732 -0.955667 -0.251348 -0.153375
4.556350 15.601485 19.779972 -0.195120 0.848904 -0.491213
-17.950621 -9.568056 24.879374 -0.721574 -0.662151 -0.202203
-9.964820 3.917380 9.252879 0.378693 0.350475 -0.856597
-17.808186 -3.700387 30.918615 -0.293345 0.198585 0.935154
-1.873216 -50.148342 70.293175 0.119947 0.688930 0.714834
-7.434540 -62.228039 74.312378 -0.973940 0.132721 0.183917
-15.276965 -14.050131 28.060600 -0.765377 -0.578835 -0.281333
10.820640 -0.459527 31.875923 0.656906 -0.248291 0.711917
-24.049080 17.947302 27.802849 -0.604980 0.735948 0.303940
-2.731358 6.059373 29.184454 -0.666542 0.288138 0.687531
-26.213064 4.796834 19.560492 -0.947436 0.044297 -0.316864
-7.852525 -60.422440 68.377693 -0.987948 -0.144537 -0.055393
10.011765 10.870072 32.755142 0.721060 0.179323 0.669265
5.094976 -74.524895 80.849724 0.859303 -0.353061 -0.370064
-20.563881 -5.025806 29.228827 -0.788274 -0.423398 0.446496
-9.685985 -45.941471 55.107407 -0.991147 -0.132477 -0.008781
5.654569 -66.485931 76.571815 0.999638 0.022973 -0.013993
1.565647 -21.374422 44.821613 0.320434 0.574305 0.753323
5.123132 -27.097233 41.303333 0.998710 -0.016610 0.047985
2.405273 -6.426554 34.073505 -0.119586 0.425791 0.896884
-2.689032 -33.533192 37.650951 -0.066781 -0.662715 -0.745888
3.616817 -63.794098 68.595016 0.696896 -0.488037 -0.525505
5.531724 -11.274221 11.289374 0.354162 -0.769640 -0.531248
1.033929 -75.295380 95.362663 0.276346 0.719595 0.637037
-5.777000 -76.465355 91.909790 -0.857107 0.348765 0.379118
15.135670 4.382962 26.522427 0.990419 -0.025242 0.135769
-13.213180 11.472528 11.217021 0.443126 0.606985 -0.659704
9.204700 17.892891 24.789728 0.094579 0.995010 -0.031787
3.057990 1.517547 31.919191 -0.217429 0.070906 0.973497
-7.439370 -6.615125 31.887119 -0.088866 0.497460 0.862923
-9.649565 -31.290939 47.896473 -0.821583 0.284285 0.494149
-3.742389 -72.193108 75.061226 -0.318170 -0.683344 -0.657122
11.241295 -2.125541 21.650305 0.928917 -0.357897 -0.094986
6.033090 -12.614958 21.963394 0.769798 -0.617852 -0.160219
-1.786859 -20.979593 26.541792 0.076657 -0.697121 -0.712843
2.020809 -41.745766 61.113113 0.554497 0.549684 0.624804
-15.656055 19.247509 22.934683 0.189761 0.979230 -0.071407
-3.936996 4.621695 13.187366 -0.192506 0.598853 -0.777378
4.169126 -30.149412 49.528599 0.761433 0.427044 0.487703
-6.526775 5.047428 27.661825 -0.089968 0.587696 0.804064
3.883549 -82.925125 87.451675 0.683509 -0.519888 -0.512379
-7.491275 -50.288692 64.790466 -0.896970 0.253613 0.362112
6.819010 9.625971 13.221129 0.252331 0.632797 -0.732050
0.721780 -56.246498 75.606232 0.303177 0.676729 0.670911
-0.626575 -32.693790 54.220470 0.115728 0.640164 0.759471
0.125205 -95.295631 99.036385 0.027926 -0.751017 -0.659692
-7.112825 -77.289886 86.978088 -0.998677 -0.050610 0.009115
5.065109 -35.626423 50.688557 0.985870 0.090476 0.140975
-6.703305 -93.794838 105.353935 -0.999408 -0.032260 0.011954
-1.862147 -84.146782 86.901344 -0.334497 -0.695054 -0.636405
11.069245 14.455247 18.343462 0.695480 0.570733 -0.436545
-25.135839 -0.359695 19.246361 -0.816095 -0.475443 -0.328546
-4.949000 6.621596 16.384733 0.026472 0.975710 -0.217460
-10.790385 -36.827564 45.475700 -0.933137 -0.304022 -0.191898
-12.016085 0.245242 28.632401 0.219359 0.072177 0.972971
-5.280965 -32.151699 52.658493 -0.347027 0.600190 0.720656
2.778231 -50.687050 55.436371 0.698034 -0.478675 -0.532558
11.908830 16.664772 27.786674 0.801867 0.549141 0.235485
-12.975655 16.538372 18.590830 0.593413 0.740631 -0.315160
-10.375110 -27.537561 35.107597 -0.595769 -0.573815 -0.561956
6.169610 -7.929471 34.298046 0.572349 0.192352 0.797131
-10.064170 11.187024 16.200956 0.820045 0.572255 0.007135
5.751560 -71.933372 84.794304 0.965412 0.212747 0.150727
-1.949108 8.596789 16.718763 -0.618469 0.665113 -0.418474
-8.025980 -21.731226 43.300484 -0.361885 0.532105 0.765443
3.560936 -19.806000 28.636143 0.729139 -0.549945 -0.407329
5.789025 -18.800674 34.516968 0.980283 -0.191128 -0.050151
-4.121205 -93.103912 98.410156 -0.573707 -0.625348 -0.528961
-22.317659 11.663339 33.278793 -0.510705 0.108743 0.852851
0.808290 13.311029 31.049776 -0.694531 0.472013 0.542983
-11.633530 -13.644252 36.274921 -0.230306 0.493382 0.838769
5.842078 7.895596 34.536339 -0.149795 -0.009038 0.988676
10.780875 5.249161 14.844878 0.855759 0.134474 -0.499593
-12.763850 -3.703056 7.852357 -0.021982 -0.297027 -0.954616
-2.439198 9.998699 24.300888 -0.897694 0.433036 0.081395
2.215772 -14.913143 20.134905 0.110354 -0.822881 -0.557395
-12.963535 6.818089 30.719612 0.796660 0.116125 0.593167
-3.659210 0.140691 29.349361 -0.256476 0.263943 0.929814
3.783914 -66.863571 83.347977 0.721737 0.509792 0.468197
-25.969090 9.599085 25.631948 -0.978117 0.182292 0.100284
3.498997 16.986416 26.987482 -0.361524 0.922746 0.133566
-17.078476 16.954887 31.084824 0.181647 0.697225 0.693457
-4.810830 -11.693898 18.182373 -0.089271 -0.802365 -0.590120
-6.485550 -62.421074 67.221352 -0.730537 -0.507333 -0.457087
-8.607920 -39.048412 44.780712 -0.531096 -0.587574 -0.610487
-12.293075 -28.359585 39.759052 -0.971447 -0.232545 -0.047047
-5.259050 -44.924263 48.602757 -0.199596 -0.671095 -0.713998
-1.176782 -55.604240 58.075954 0.117016 -0.690183 -0.714111
-26.743990 1.885755 27.960154 -0.880707 -0.219734 0.419609
-4.820615 -0.606107 11.582575 0.022137 -0.006111 -0.999736
11.849210 11.368972 20.923706 0.968977 0.243573 0.041904
-22.419985 13.299653 14.896388 -0.685312 0.370588 -0.626907
-0.047148 -14.998049 39.774708 0.003109 0.585944 0.810346
7.609495 -9.852285 29.594292 0.933949 -0.350606 0.069390
-18.175745 15.362367 14.031540 -0.072744 0.764269 -0.640782
-2.836494 -62.488373 82.118660 -0.308681 0.679779 0.665295
3.933239 -39.960922 47.889736 0.851258 -0.341774 -0.398183
4.125641 -6.219744 7.848757 -0.137451 -0.353705 -0.925203
-6.084325 -54.908039 58.771454 -0.518305 -0.618348 -0.590767
6.335670 14.474326 33.053135 0.009855 0.677726 0.735248
8.413855 -8.315325 13.104109 0.867164 -0.481712 -0.126414
-9.438400 -15.185751 22.832886 -0.300432 -0.699122 -0.648821
-16.564205 9.311883 33.801624 0.322550 -0.038578 0.945766
0.875009 -82.914108 85.539429 0.175392 -0.714213 -0.677597
-12.150080 -11.708610 19.772352 -0.399677 -0.790719 -0.463704
3.514702 11.188610 15.160287 -0.322800 0.691084 -0.646686
-12.139975 -8.025019 11.254827 -0.288598 -0.787115 -0.545125
6.823590 5.317155 9.165349 0.233338 0.510885 -0.827375
1.427378 -30.514366 36.329842 0.619640 -0.527464 -0.581230
5.245716 -1.137533 6.852142 -0.099002 0.133567 -0.986082
-4.244345 -44.582897 64.318001 -0.341239 0.628090 0.699328
-6.146135 -74.948776 80.424355 -0.822023 -0.430932 -0.372258
-18.937775 8.181105 8.894424 -0.414019 0.210760 -0.885533
9.499805 -3.086096 8.581615 0.758862 -0.173483 -0.627720
-2.552462 -74.224083 94.214920 -0.326078 0.676727 0.660086
-3.851335 -57.023705 76.189995 -0.491745 0.592670 0.637910
-14.756075 -16.589787 33.831596 -0.944463 -0.234674 0.230040
-10.925345 5.991736 28.450960 0.580637 0.540005 0.609308
-12.027035 15.813246 27.526020 0.806709 0.474270 0.352546
-6.254465 -86.367119 93.587593 -0.897229 -0.345901 -0.274467
4.043935 -51.146175 67.677475 0.765506 0.457097 0.452839
-0.331943 -43.892147 47.181141 0.283096 -0.643636 -0.711049
4.734457 -59.719318 74.604530 0.870327 0.349001 0.347461
5.213395 -55.814404 65.351524 0.990851 -0.072215 -0.114017
5.109545 -46.681149 58.283127 0.999708 0.023300 0.006448
-21.449100 3.491315 30.416180 -0.197387 -0.234177 0.951945
-0.435976 -64.645790 84.636131 0.180594 0.709106 0.681582
-4.559125 -8.522593 13.739656 -0.085982 -0.642746 -0.761239
4.702273 -18.614786 40.761620 0.757642 0.285559 0.586885
-23.121620 16.857927 18.230707 -0.694339 0.617275 -0.369952
