ply
format ascii 1.0
element vertex 131
property float x
property float y
property float z
property float nx
property float ny
property float nz
end_header
-4.260083 9.063047 39.791271 -0.730164 0.656166 -0.190542
-0.216073 -175.541763 171.511826 0.225934 -0.682881 -0.694714
-27.464560 -55.785912 80.540222 -0.722608 0.201131 0.661350
27.577801 -7.736415 42.453167 0.972881 0.020496 -0.230395
-18.345551 -141.688049 146.912674 -0.955667 -0.251348 -0.153375
8.112700 14.490990 34.319324 -0.195120 0.848904 -0.491213
-36.901241 -37.887890 54.585938 -0.721574 -0.662151 -0.202203
-20.929640 -4.666401 17.938797 0.378693 0.350475 -0.856597
-36.616371 -28.568239 64.317345 -0.293345 0.198585 0.935154
-4.746432 -137.214035 161.645584 0.119947 0.688930 0.714834
-15.869080 -162.981125 174.515854 -0.973940 0.132721 0.183917
-31.553930 -48.124538 62.741219 -0.765377 -0.578835 -0.281333
20.641279 -22.469439 64.935616 0.656906 -0.248291 0.711917
-49.098160 15.973474 49.426743 -0.604980 0.735948 0.303940
-6.462717 -8.355041 56.945122 -0.666542 0.288138 0.687531
-53.426128 -7.030536 38.202225 -0.947436 0.044297 -0.316864
-16.705050 -156.996063 161.924271 -0.987948 -0.144537 -0.055393
19.023529 -0.161912 62.162212 0.721060 0.179323 0.669265
9.189953 -190.189804 192.509293 0.859303 -0.353061 -0.370064
-42.127762 -30.543163 61.467934 -0.788274 -0.423398 0.446496
-20.371969 -122.725990 129.591324 -0.991147 -0.132477 -0.008781
10.309138 -172.400696 180.737885 0.999638 0.022973 -0.013993
2.131295 -69.477539 99.192932 0.320434 0.574305 0.753323
9.246263 -79.515854 94.445503 0.998710 -0.016610 0.047985
3.810547 -35.282536 71.717583 -0.119586 0.425791 0.896884
-6.378064 -90.926826 89.715134 -0.066781 -0.662715 -0.745888
6.233633 -163.826309 163.707581 0.696896 -0.488037 -0.525505
10.063447 -35.864223 28.088425 0.354162 -0.769640 -0.531248
-12.554000 -198.494751 215.405594 -0.857107 0.348765 0.379118
29.271339 -10.643055 52.291634 0.990419 -0.025242 0.135769
-27.426359 9.658251 18.845018 0.443126 0.606985 -0.659704
17.409401 17.069902 43.422272 0.094579 0.995010 -0.031787
5.115981 -18.532595 64.231323 -0.217429 0.070906 0.973497
-15.878740 -34.785122 67.420250 -0.088866 0.497460 0.862923
-20.299129 -90.540527 109.309258 -0.821583 0.284285 0.494149
-8.484779 -183.210831 179.999588 -0.318170 -0.683344 -0.657122
21.482590 -21.711222 45.150799 0.928917 -0.357897 -0.094986
11.066180 -42.815308 49.972744 0.769798 -0.617852 -0.160219
-4.573719 -61.375950 62.475384 0.076657 -0.697121 -0.712843
3.041617 -116.736855 139.924454 0.554497 0.549684 0.624804
-32.312111 20.521158 39.170334 0.189761 0.979230 -0.071407
-8.873991 -4.831564 25.526039 -0.192506 0.598853 -0.777378
7.338252 -88.910324 112.116890 0.761433 0.427044 0.487703
-14.053550 -9.769881 54.304642 -0.089968 0.587696 0.804064
6.767098 -209.631058 209.073273 0.683509 -0.519888 -0.512379
-15.982550 -135.293655 150.696320 -0.896970 0.253613 0.362112
12.638020 5.163490 23.591854 0.252331 0.632797 -0.732050
0.443561 -151.535583 174.710953 0.303177 0.676729 0.670911
-2.253151 -95.875832 122.518379 0.115728 0.640164 0.759471
-15.225650 -198.171127 205.872009 -0.998677 -0.050610 0.009115
9.130217 -100.328331 116.627609 0.985870 0.090476 0.140975
-4.724295 -211.854233 208.461273 -0.334497 -0.695054 -0.636405
21.138491 12.773115 31.904802 0.695480 0.570733 -0.436545
-51.271679 -17.217949 39.636578 -0.816095 -0.475443 -0.328546
-10.898000 -2.110706 31.120808 0.026472 0.975710 -0.217460
-22.580770 -100.645477 106.682365 -0.933137 -0.304022 -0.191898
-25.032169 -19.762491 58.166668 0.219359 0.072177 0.972971
-11.561930 -94.166855 119.177597 -0.347027 0.600190 0.720656
4.556462 -132.348740 132.147491 0.698034 -0.478675 -0.532558
22.817659 13.414883 49.907406 0.801867 0.549141 0.235485
-26.951309 16.840422 31.566286 0.593413 0.740631 -0.315160
-21.750219 -77.918213 82.230171 -0.595769 -0.573815 -0.561956
11.339220 -38.378189 72.767838 0.572349 0.192352 0.797131
-21.128340 7.093667 28.927086 0.820045 0.572255 0.007135
10.503120 -186.584595 199.361832 0.965412 0.212747 0.150727
-4.898216 1.706070 30.998791 -0.618469 0.665113 -0.418474
-17.051960 -69.582695 96.293404 -0.361885 0.532105 0.765443
6.121873 -59.866501 66.194649 0.729139 -0.549945 -0.407329
10.578050 -60.208179 77.554161 0.980283 -0.191128 -0.050151
-45.635319 1.215163 62.892204 -0.510705 0.108743 0.852851
0.616580 5.402153 57.775101 -0.694531 0.472013 0.542983
-24.267059 -50.598507 79.007492 -0.230306 0.493382 0.838769
10.684155 -6.823347 66.914398 -0.149795 -0.009038 0.988676
20.561750 -4.239636 28.590075 0.855759 0.134474 -0.499593
-26.527700 -19.347075 18.185930 -0.021982 -0.297027 -0.954616
-5.878395 1.477042 45.602264 -0.897694 0.433036 0.081395
3.431544 -46.680283 47.235043 0.110354 -0.822881 -0.557395
-26.927071 -7.451672 59.711948 0.796660 0.116125 0.593167
-8.318419 -20.258377 59.642406 -0.256476 0.263943 0.929814
6.567828 -175.866455 194.441269 0.721737 0.509792 0.468197
-52.938179 0.145391 48.424229 -0.978117 0.182292 0.100284
5.997994 14.377847 48.180363 -0.361524 0.922746 0.133566
-35.156952 12.675857 56.387650 0.181647 0.697225 0.693457
-10.621660 -39.460777 42.042282 -0.089271 -0.802365 -0.590120
-13.971100 -160.530792 160.411041 -0.730537 -0.507333 -0.457087
-18.215839 -104.809181 106.180733 -0.531096 -0.587574 -0.610487
-25.586149 -81.422844 91.861885 -0.971447 -0.232545 -0.047047
-11.518100 -118.089714 116.175156 -0.199596 -0.671095 -0.713998
-3.353564 -143.238968 139.393524 0.117016 -0.690183 -0.714111
-54.487980 -16.212563 56.165970 -0.880707 -0.219734 0.419609
-10.641230 -14.645260 24.407579 0.022137 -0.006111 -0.999736
22.698420 5.568463 38.299797 0.968977 0.243573 0.041904
-45.839970 11.840756 25.472898 -0.685312 0.370588 -0.626907
-1.094296 -54.706020 86.548584 0.003109 0.585944 0.810346
14.218990 -40.342316 64.129456 0.933949 -0.350606 0.069390
-37.351490 16.312124 22.918118 -0.072744 0.764269 -0.640782
-6.672988 -166.624313 190.232544 -0.308681 0.679779 0.665295
6.866478 -107.877815 112.763771 0.851258 -0.341774 -0.398183
7.251282 -24.379017 19.185406 -0.137451 -0.353705 -0.925203
-13.168650 -142.124756 140.506042 -0.518305 -0.618348 -0.590767
11.671340 6.927404 61.316498 0.009855 0.677726 0.735248
15.827710 -30.672321 30.534332 0.867164 -0.481712 -0.126414
-19.876801 -48.304695 52.740044 -0.300432 -0.699122 -0.648821
-34.128410 -3.696885 64.878448 0.322550 -0.038578 0.945766
0.750018 -208.844131 205.244385 0.175392 -0.714213 -0.677597
-25.300159 -40.126190 45.228123 -0.399677 -0.790719 -0.463704
6.029404 7.513107 26.845114 -0.322800 0.691084 -0.646686
-25.279949 -29.351995 26.719648 -0.288598 -0.787115 -0.545125
12.647180 -1.831837 17.203827 0.233338 0.510885 -0.827375
1.854756 -84.360725 85.865379 0.619640 -0.527464 -0.581230
9.491432 -13.815939 15.159291 -0.099002 0.133567 -0.986082
-9.488690 -123.693069 147.469070 -0.341239 0.628090 0.699328
-13.292270 -190.867416 191.828094 -0.822023 -0.430932 -0.372258
-38.875549 4.004437 15.516397 -0.414019 0.210760 -0.885533
17.999611 -18.404858 19.397661 0.758862 -0.173483 -0.627720
-6.104925 -194.934250 219.119339 -0.326078 0.676727 0.660086
-8.702669 -153.323502 176.189362 -0.491745 0.592670 0.637910
-30.512150 -55.512253 75.299065 -0.944463 -0.234674 0.230040
-22.850691 -8.196918 55.505192 0.580637 0.540005 0.609308
-25.054070 11.816092 49.726707 0.806709 0.474270 0.352546
-13.508930 -218.969406 222.721893 -0.897229 -0.345901 -0.274467
7.087869 -138.163422 156.813324 0.765506 0.457097 0.452839
-1.663885 -115.456825 112.919075 0.283096 -0.643636 -0.711049
8.468913 -158.080551 174.096680 0.870327 0.349001 0.347461
9.426791 -146.569504 154.028717 0.990851 -0.072215 -0.114017
9.219090 -125.475632 136.238632 0.999708 0.023300 0.006448
-43.898201 -13.983852 60.435795 -0.197387 -0.234177 0.951945
-1.871952 -171.946152 196.130463 0.180594 0.709106 0.681582
-10.118250 -31.341076 31.888332 -0.085982 -0.642746 -0.761239
8.404546 -62.334263 89.969101 0.757642 0.285559 0.586885
-47.243240 17.623585 30.718222 -0.694339 0.617275 -0.369952
