ply
format ascii 1.0
element vertex 151
property float x
property float y
property float z
property float nx
property float ny
property float nz
end_header
-1.630041 12.441304 27.449446 -0.730164 0.656166 -0.190542
0.391964 -99.651802 99.879456 0.225934 -0.682881 -0.694714
-13.232280 -27.395571 49.211346 -0.722608 0.201131 0.661350
14.288900 1.463493 27.824087 0.972881 0.020496 -0.230395
-8.672775 -79.132599 86.301147 -0.955667 -0.251348 -0.153375
4.556350 15.603936 24.253809 -0.195120 0.848904 -0.491213
-17.950621 -17.626417 33.399982 -0.721574 -0.662151 -0.202203
6.979055 -137.470139 152.265152 0.991831 0.115912 0.053254
-9.964820 1.467303 11.737002 0.378693 0.350475 -0.856597
-17.808186 -10.602369 40.664227 -0.293345 0.198585 0.935154
-1.873216 -74.922180 96.495934 0.119947 0.688930 0.714834
-7.434540 -91.027710 102.928864 -0.973940 0.132721 0.183917
-15.276965 -23.771238 37.983784 -0.765377 -0.578835 -0.281333
10.820640 -6.484981 41.584644 0.656906 -0.248291 0.711917
-24.049080 17.851210 34.448963 -0.604980 0.735948 0.303940
-2.731358 2.258738 37.433842 -0.666542 0.288138 0.687531
-26.213064 1.579833 25.048948 -0.947436 0.044297 -0.316864
-7.852525 -88.086967 95.033218 -0.987948 -0.144537 -0.055393
10.011765 8.155580 41.594669 0.721060 0.179323 0.669265
5.094976 -107.667366 112.657104 0.859303 -0.353061 -0.370064
-20.563881 -12.156435 38.600044 -0.788274 -0.423398 0.446496
-9.685985 -67.934677 76.333755 -0.991147 -0.132477 -0.008781
7.103075 -149.555023 162.476791 0.963774 -0.178169 -0.198483
5.654569 -96.788918 106.291924 0.999638 0.022973 -0.013993
1.565647 -34.968922 60.505524 0.320434 0.574305 0.753323
5.123132 -42.056751 56.504044 0.998710 -0.016610 0.047985
2.405273 -14.461877 45.038200 -0.119586 0.425791 0.896884
-2.689032 -50.058262 52.399544 -0.066781 -0.662715 -0.745888
3.616817 -92.491859 95.652908 0.696896 -0.488037 -0.525505
5.531724 -18.485432 15.903605 0.354162 -0.769640 -0.531248
1.033929 -110.120293 131.600967 0.276346 0.719595 0.637037
-5.777000 -111.295975 127.229225 -0.857107 0.348765 0.379118
15.135670 0.345606 34.140850 0.990419 -0.025242 0.135769
-13.213180 11.092585 13.534872 0.443126 0.606985 -0.659704
9.204700 18.081787 30.537352 0.094579 0.995010 -0.031787
3.057990 -3.919111 41.443184 -0.217429 0.070906 0.973497
-7.439370 -14.488381 42.214760 -0.088866 0.497460 0.862923
-9.649565 -48.167885 65.494492 -0.821583 0.284285 0.494149
-3.742389 -104.057190 104.898880 -0.318170 -0.683344 -0.657122
11.241295 -7.628238 28.457943 0.928917 -0.357897 -0.094986
6.033090 -21.295794 29.913902 0.769798 -0.617852 -0.160219
-1.786859 -32.627663 36.702278 0.076657 -0.697121 -0.712843
2.020809 -63.080826 83.721603 0.554497 0.549684 0.624804
-15.656055 20.028297 27.990330 0.189761 0.979230 -0.071407
-3.936996 1.989465 16.781403 -0.192506 0.598853 -0.777378
4.169126 -46.847111 67.502098 0.761433 0.427044 0.487703
-6.526775 1.095472 35.555618 -0.089968 0.587696 0.804064
3.883549 -119.247864 122.079659 0.683509 -0.519888 -0.512379
-7.491275 -74.554367 89.356453 -0.896970 0.253613 0.362112
6.819010 8.491650 16.324867 0.252331 0.632797 -0.732050
0.721780 -83.381096 104.012726 0.303177 0.676729 0.670911
-0.626575 -50.623989 73.855972 0.115728 0.640164 0.759471
0.125205 -136.488007 138.376831 0.027926 -0.751017 -0.659692
-7.112825 -111.874687 120.900475 -0.998677 -0.050610 0.009115
5.065109 -54.083221 69.557747 0.985870 0.090476 0.140975
-6.703305 -135.168716 146.439560 -0.999408 -0.032260 0.011954
-1.862147 -120.780983 121.486397 -0.334497 -0.695054 -0.636405
11.069245 14.257476 22.500971 0.695480 0.570733 -0.436545
-25.135839 -5.092243 25.156233 -0.816095 -0.475443 -0.328546
-4.949000 4.269600 20.737989 0.026472 0.975710 -0.217460
-10.790385 -55.123421 62.901154 -0.933137 -0.304022 -0.191898
-2.859465 -120.253609 141.900208 -0.598730 0.585872 0.546146
-12.016085 -5.244430 37.297588 0.219359 0.072177 0.972971
-5.280965 -49.763073 71.771194 -0.347027 0.600190 0.720656
2.778231 -74.136826 77.235970 0.698034 -0.478675 -0.532558
11.908830 16.185537 34.556190 0.801867 0.549141 0.235485
-5.930300 -138.002487 153.946533 -0.903115 0.306319 0.300918
-12.975655 16.940804 22.614235 0.593413 0.740631 -0.315160
-10.375110 -42.009602 48.493618 -0.595769 -0.573815 -0.561956
6.169610 -16.438124 45.480396 0.572349 0.192352 0.797131
2.491205 -162.242508 169.686691 0.148890 -0.753433 -0.640445
-10.064170 10.223036 20.042538 0.820045 0.572255 0.007135
5.751560 -104.692848 117.525902 0.965412 0.212747 0.150727
-1.949108 6.803948 20.974709 -0.618469 0.665113 -0.418474
-8.025980 -35.280655 58.563740 -0.361885 0.532105 0.765443
3.560936 -31.311424 39.307575 0.729139 -0.549945 -0.407329
5.789025 -30.592585 46.852112 0.980283 -0.191128 -0.050151
-4.121205 -133.576141 137.343552 -0.573707 -0.625348 -0.528961
-22.317659 9.134462 42.196087 -0.510705 0.108743 0.852851
-5.632030 -143.993164 152.358429 -0.868216 -0.398005 -0.296299
0.808290 11.499361 39.133595 -0.694531 0.472013 0.542983
-11.633530 -24.065027 48.621807 -0.230306 0.493382 0.838769
5.842078 4.110640 44.207672 -0.149795 -0.009038 0.988676
10.780875 2.639420 18.873421 0.855759 0.134474 -0.499593
-12.763850 -8.299214 10.678368 -0.021982 -0.297027 -0.954616
4.893472 -130.360214 151.317200 0.696806 0.580935 0.420685
4.361961 -140.290924 145.331589 0.586818 -0.604026 -0.539257
-2.439198 7.868219 30.691277 -0.897694 0.433036 0.081395
2.215772 -24.100586 27.766685 0.110354 -0.822881 -0.557395
-12.963535 3.091553 39.353676 0.796660 0.116125 0.593167
4.976971 -115.825409 132.580872 0.789768 0.470923 0.393063
-3.659210 -5.452041 38.240089 -0.256476 0.263943 0.929814
3.783914 -97.957474 115.138702 0.721737 0.509792 0.468197
-25.969090 7.215616 32.461617 -0.978117 0.182292 0.100284
6.113920 -136.458984 145.032074 0.906758 -0.299363 -0.296936
3.498997 16.683594 33.485077 -0.361524 0.922746 0.133566
-17.078476 16.232876 38.814770 0.181647 0.697225 0.693457
-4.810830 -19.720312 24.906469 -0.089271 -0.802365 -0.590120
-6.485550 -90.569557 93.729843 -0.730537 -0.507333 -0.457087
-8.607920 -57.941025 62.219753 -0.531096 -0.587574 -0.610487
-12.293075 -43.543377 54.622715 -0.971447 -0.232545 -0.047047
-5.259050 -65.961838 67.775993 -0.199596 -0.671095 -0.713998
-1.176782 -80.793137 81.159149 0.117016 -0.690183 -0.714111
-0.304284 -125.077667 149.333115 -0.211422 0.741701 0.636538
-26.743990 -3.044536 36.259617 -0.880707 -0.219734 0.419609
-4.820615 -4.646201 15.217955 0.022137 -0.006111 -0.999736
11.849210 9.987293 26.163914 0.968977 0.243573 0.041904
-22.419985 13.099911 18.135336 -0.685312 0.370588 -0.626907
-0.047148 -26.174944 53.306911 0.003109 0.585944 0.810346
7.609495 -18.467407 39.557796 0.933949 -0.350606 0.069390
-18.175745 15.867925 16.804762 -0.072744 0.764269 -0.640782
-2.836494 -92.146774 113.103065 -0.308681 0.679779 0.665295
5.758135 -143.643600 169.122086 0.708874 0.589140 0.387830
6.650790 -126.031258 138.163422 0.999511 0.025197 -0.018536
3.933239 -59.438190 66.352730 0.851258 -0.341774 -0.398183
4.125641 -11.570549 10.925357 -0.137451 -0.353705 -0.925203
-6.084325 -79.957619 81.993675 -0.518305 -0.618348 -0.590767
6.335670 12.811311 41.621632 0.009855 0.677726 0.735248
8.413855 -14.820340 17.966869 0.867164 -0.481712 -0.126414
-9.438400 -24.724773 31.301317 -0.300432 -0.699122 -0.648821
2.225173 -145.733566 149.558182 0.267400 -0.740487 -0.616584
-16.564205 6.025285 43.110912 0.322550 -0.038578 0.945766
0.875009 -119.042320 119.592636 0.175392 -0.714213 -0.677597
-12.150080 -19.898436 26.974913 -0.399677 -0.790719 -0.463704
3.514702 10.329165 18.689508 -0.322800 0.691084 -0.646686
-12.139975 -14.258014 15.533774 -0.288598 -0.787115 -0.545125
6.823590 3.295764 11.483236 0.233338 0.510885 -0.827375
1.427378 -46.001675 50.380219 0.619640 -0.527464 -0.581230
5.245716 -4.864011 9.121536 -0.099002 0.133567 -0.986082
-4.244345 -67.089584 88.171661 -0.341239 0.628090 0.699328
-6.146135 -108.175873 112.146507 -0.822023 -0.430932 -0.372258
-18.937775 7.045993 10.844638 -0.414019 0.210760 -0.885533
9.499805 -7.570091 11.564707 0.758862 -0.173483 -0.627720
-2.552462 -108.612823 130.001770 -0.326078 0.676727 0.660086
-3.851335 -84.449837 104.849335 -0.491745 0.592670 0.637910
-14.756075 -27.649893 45.740044 -0.944463 -0.234674 0.230040
1.458023 -134.057388 159.818878 0.041990 0.782763 0.620902
-10.925345 2.244159 36.487068 0.580637 0.540005 0.609308
-12.027035 15.104620 34.302490 0.806709 0.474270 0.352546
-6.254465 -124.336044 130.400543 -0.897229 -0.345901 -0.274467
4.043935 -75.957794 93.195313 0.765506 0.457097 0.452839
-0.331943 -64.477928 65.824684 0.283096 -0.643636 -0.711049
4.734457 -87.795593 103.057800 0.870327 0.349001 0.347461
5.213395 -81.793900 90.638397 0.990851 -0.072215 -0.114017
5.109545 -69.213829 80.536163 0.999708 0.023300 0.006448
-1.113185 -146.418625 150.266373 -0.245135 -0.755105 -0.608051
-21.449100 -1.202911 39.291893 -0.197387 -0.234177 0.951945
-0.435976 -95.203171 116.591522 0.180594 0.709106 0.681582
-4.559125 -15.153344 18.813808 -0.085982 -0.642746 -0.761239
4.702273 -30.975393 54.951572 0.757642 0.285559 0.586885
-23.121620 17.392239 22.114120 -0.694339 0.617275 -0.369952
