ply
format ascii 1.0
element vertex 243
property float x
property float y
property float z
property float nx
property float ny
property float nz
end_header
15.102190 -141.485931 157.766266 0.802383 -0.556464 -0.215708
2.885159 -141.707748 163.752426 -0.724954 0.051230 0.686890
2.760327 -132.533386 168.271149 -0.683165 0.409515 0.604635
1.275297 -132.969757 165.512421 -0.878799 -0.169898 0.445923
1.529359 -89.336220 112.447823 0.108546 0.787096 0.607205
-21.356276 -160.700439 162.062958 -0.541779 -0.840509 0.004578
-11.836360 -151.145615 150.982849 0.301388 -0.048017 -0.952292
-16.267481 -160.161346 155.662292 0.027436 -0.848776 -0.528039
5.328718 -119.148125 153.899780 -0.028892 0.741909 0.669878
8.733245 -122.193535 155.764313 0.500846 0.700481 0.508409
-0.046520 -122.409943 131.603027 -0.003391 -0.751924 -0.659241
-19.939236 -143.994659 171.066483 -0.340607 0.469913 0.814351
12.861775 -128.674408 159.144180 0.870516 0.453859 0.190299
11.428525 -141.497223 168.362152 0.697604 -0.178555 0.693878
10.702515 -127.462944 161.731262 0.642119 0.608443 0.466348
5.824333 -115.589012 150.703918 0.269419 0.821296 0.502877
6.936185 -95.367813 109.257301 0.996493 0.082694 0.012758
6.682490 -90.107834 103.429482 0.998964 0.039073 -0.023310
1.148933 -115.682037 124.181656 0.101925 -0.757200 -0.645181
-8.995025 -151.700317 170.192093 0.784933 -0.003700 0.619570
9.089045 -129.037048 144.224304 0.734033 -0.339355 -0.588246
9.450455 -135.716156 148.599609 0.256555 -0.496877 -0.829031
-12.214075 -120.281052 145.598831 -0.667584 -0.106888 -0.736822
5.596308 -126.454277 164.175644 0.151281 0.723527 0.673515
-6.168145 -124.288322 141.507614 -0.910293 -0.187307 -0.369165
9.491085 -120.501915 144.875290 0.959701 0.280816 -0.010791
-19.180065 -139.915237 166.666351 -0.217636 0.905901 0.363286
-4.593265 -135.807846 160.910934 -0.247245 0.473405 0.845434
-0.339084 -136.780518 162.033859 -0.080717 0.137350 0.987228
5.113485 -122.844711 158.086380 0.043168 0.826194 0.561729
0.328848 -86.453415 108.885277 0.128868 0.764532 0.631573
-14.704440 -145.968216 152.117157 -0.049449 0.323356 -0.944985
-11.550755 -151.843536 172.539948 0.412705 -0.172995 0.894286
-2.120476 -109.743416 136.426575 -0.452848 0.776355 0.438408
-10.618570 -146.548645 152.284439 0.158280 0.151611 -0.975685
6.680230 -140.159531 151.482422 0.128867 -0.588328 -0.798288
5.478591 -102.718758 127.597824 0.417623 0.733083 0.536825
7.665780 -103.394974 120.965492 0.996847 0.073730 -0.029334
12.438405 -130.706802 150.433640 0.923880 0.280394 -0.260433
5.966185 -82.206482 90.692719 0.949334 -0.208052 -0.235542
-22.048050 -152.772171 171.767578 -0.528369 -0.189553 0.827585
-6.034465 -101.898476 117.473915 -0.957920 0.201672 0.204247
-10.363975 -138.566238 162.351563 -0.186914 0.800992 0.568748
-18.213470 -161.508713 160.345978 -0.127582 -0.982396 -0.136459
-2.075525 -87.918129 109.183098 -0.494154 0.642883 0.585247
-11.668135 -145.296738 171.352493 0.565672 0.356648 0.743517
3.479989 -96.410744 101.702393 0.538674 -0.628029 -0.561614
-15.620575 -158.997208 169.699692 0.182148 -0.721782 0.667722
-7.819420 -142.094467 151.253876 -0.140541 -0.406016 -0.902995
1.442175 -100.828110 105.763023 0.180704 -0.759693 -0.624670
-25.366961 -152.580872 162.900467 -0.939591 -0.318350 0.125783
11.457765 -126.041611 155.230438 0.859374 0.499313 0.110287
8.390220 -111.165276 130.272324 0.989245 -0.068812 -0.129068
-17.868515 -148.905807 173.341232 -0.123656 0.065032 0.990192
-10.398110 -124.587120 147.241852 -0.508880 -0.483017 -0.712556
-8.003645 -146.869095 152.926208 0.270926 -0.152091 -0.950509
-3.873434 -95.345520 114.834564 -0.720255 0.516517 0.463080
-2.428415 -119.249016 128.853531 -0.296747 -0.720526 -0.626725
5.301831 -83.597229 100.041595 0.862752 0.409122 0.297118
5.966215 -102.223022 111.699692 0.795975 -0.454217 -0.400139
-13.686850 -161.205902 158.738037 0.284428 -0.927309 -0.243307
-7.956220 -115.841537 143.364395 -0.731402 0.601741 -0.320871
-6.045880 -106.589523 122.320969 -0.967892 0.197128 0.155967
-16.382284 -143.193817 154.207733 -0.356111 0.609768 -0.708074
-6.832620 -152.103073 165.204178 0.864701 -0.030958 0.501333
7.950810 -105.849014 127.301994 0.924168 0.345882 0.162111
-25.779135 -152.523788 167.728485 -0.908205 -0.265645 0.323413
-5.287550 -99.889618 108.442490 -0.829327 -0.434417 -0.351424
-4.738630 -122.918320 155.212265 -0.380726 0.443530 0.811375
-5.777670 -105.260796 115.951202 -0.875482 -0.384288 -0.293009
6.521680 -144.461639 170.313202 0.073045 -0.568988 0.819095
13.052745 -138.823746 150.701981 0.501364 -0.560973 -0.658744
1.549332 -97.610909 122.484093 -0.083332 0.766934 0.636292
-18.180305 -141.166962 158.383698 -0.410883 0.854156 -0.318735
0.344717 -123.844933 159.156281 -0.397268 0.687274 0.608139
-20.210146 -158.147964 169.626511 -0.375292 -0.690780 0.618044
-6.695180 -136.004181 147.826935 -0.458066 -0.455412 -0.763397
-6.661425 -130.214966 144.747620 -0.836607 -0.202503 -0.508999
3.073859 -93.153641 116.643059 0.330090 0.753222 0.568944
6.994590 -106.957092 119.933182 0.921689 -0.274209 -0.274405
-9.513060 -141.755188 166.333176 0.383826 0.689347 0.614393
8.740475 -119.623344 151.823105 0.860477 0.485305 0.155110
5.195748 -145.190323 167.134308 -0.715539 -0.674802 0.180682
3.766668 -96.488472 120.453186 0.443666 0.717292 0.537264
3.649050 -147.213104 162.616425 -0.256150 -0.517951 0.816158
16.403490 -138.963074 156.268097 0.932483 -0.330666 -0.145379
-4.643880 -126.820839 139.600235 -0.702328 -0.444020 -0.556400
-3.960885 -121.703415 132.988525 -0.726597 -0.518761 -0.450492
-5.010045 -117.079689 129.270584 -0.872973 -0.383463 -0.301453
-3.385286 -128.495209 140.057938 -0.406473 -0.665567 -0.625940
1.480703 -74.057800 93.587051 0.283284 0.722299 0.630900
11.951670 -136.532883 167.926544 0.769211 0.257955 0.584615
3.543231 -126.280991 164.219528 -0.136608 0.742136 0.656180
-10.071600 -116.509789 149.557281 -0.251172 0.863828 0.436707
-27.480265 -149.673492 161.831100 -0.948991 -0.270869 0.161389
-5.409775 -121.122375 136.146622 -0.951586 -0.228607 -0.205480
3.475454 -113.517700 145.012604 0.043692 0.892687 0.448554
0.719265 -108.088745 114.649391 0.020206 -0.772535 -0.634651
4.196251 -132.657623 144.393112 0.196239 -0.686901 -0.699755
-1.603948 -128.657730 159.881760 -0.716944 0.271344 0.642156
7.115520 -138.609085 171.706467 0.359346 -0.006538 0.933182
-3.150288 -107.864723 132.151169 -0.577583 0.689764 0.436604
-4.345425 -152.112762 159.945129 0.839937 -0.542421 0.016878
-2.231657 -149.413132 156.679108 0.175865 -0.805238 -0.566271
-9.869195 -130.946533 151.219421 -0.960581 0.045472 -0.274256
10.767835 -141.881485 152.922012 0.303426 -0.640408 -0.705556
-24.095825 -143.295593 167.466766 -0.669996 0.598586 0.439089
-13.524705 -122.900681 148.045898 -0.896953 -0.329228 -0.295102
-9.876665 -127.742424 149.537857 -0.798356 -0.444295 -0.406485
-0.841860 -147.311432 162.707886 0.248377 -0.343664 0.905651
-6.110930 -115.042694 139.080688 -0.973553 0.162589 -0.160499
4.628045 -136.797043 163.391525 -0.865687 -0.177334 0.468123
-14.783010 -141.044357 169.419891 0.115285 0.823842 0.554971
4.112903 -87.199516 92.189362 0.637508 -0.567502 -0.521080
4.295993 -135.491577 171.598938 -0.035516 0.480548 0.876249
-1.173932 -76.075874 96.698898 -0.074295 0.750573 0.656598
2.422089 -82.385445 102.855484 0.533229 0.653482 0.537241
-3.100816 -83.070107 103.015167 -0.652820 0.550263 0.520612
-16.081345 -139.890900 161.958084 -0.183991 0.979937 -0.076617
-13.463690 -121.879745 150.529495 -0.870603 0.033650 0.490834
12.563235 -146.580490 159.484039 0.665151 -0.715544 -0.213471
1.488713 -144.909012 153.112030 0.116377 -0.501943 -0.857035
0.266153 -93.352463 96.890076 0.152340 -0.734211 -0.661609
-3.959255 -119.238289 151.890610 -0.085315 0.782292 0.617042
-5.588695 -156.070969 161.703949 0.850711 -0.524430 0.035568
-9.341235 -159.693344 162.102524 0.589436 -0.805031 0.067012
-14.398340 -146.317841 172.780457 0.126178 0.342111 0.931149
2.328173 -134.986832 167.225906 -0.979935 -0.118867 -0.159996
-5.239365 -113.897331 141.558884 -0.516730 0.832164 0.201229
2.208303 -149.147614 159.932510 0.117757 -0.928876 0.351174
-11.890370 -135.644974 155.867447 -0.801519 0.579299 0.148257
-27.542049 -148.178192 159.197723 -0.962109 0.159912 -0.220849
-3.889231 -140.438004 149.963257 -0.021102 -0.540000 -0.841400
4.625981 -111.199883 140.809189 0.383652 0.795014 0.469854
-2.951908 -96.852814 101.927551 -0.352409 -0.721296 -0.596272
-6.366605 -100.703110 113.485268 -0.993115 -0.088946 -0.076226
-6.242475 -97.251656 111.378082 -0.994430 0.079749 0.068917
-0.608582 -116.830772 148.849792 -0.169929 0.810014 0.561250
7.440725 -99.998283 116.489822 0.995875 0.089270 -0.016260
-12.202510 -142.274185 152.369217 -0.341801 0.057378 -0.938019
-0.271800 -93.053429 116.419693 -0.336002 0.714199 0.614022
-6.709720 -156.732498 157.923080 0.733945 -0.596951 -0.323998
-11.353155 -137.271164 151.748062 -0.829158 0.193308 -0.524528
-24.859505 -156.838394 165.359406 -0.837305 -0.477598 0.266119
8.479395 -146.965195 156.731155 0.343985 -0.583606 -0.735580
5.759461 -97.303848 119.164749 0.778894 0.533212 0.330165
6.825775 -101.617798 123.851563 0.822909 0.486587 0.293348
-9.316815 -145.577530 168.529999 0.721529 0.208747 0.660167
0.819153 -126.698639 163.138824 -0.702163 0.413302 0.579783
-18.098776 -154.393753 150.914001 -0.178521 -0.261871 -0.948448
3.159713 -148.442444 154.747757 0.170736 -0.630471 -0.757203
14.916495 -136.317230 150.952835 0.745003 -0.099748 -0.659561
-8.622920 -134.271820 157.956055 -0.501629 0.569737 0.650975
-13.128530 -139.773605 164.172104 -0.045427 0.956111 0.289463
6.331615 -119.941429 132.417557 0.693617 -0.520306 -0.498174
14.593635 -138.096924 163.758011 0.917394 0.053973 0.394304
6.930750 -106.141342 130.986099 0.596403 0.688137 0.413244
8.460515 -115.302048 141.093628 0.891400 0.394364 0.223344
-15.887045 -154.374603 172.676163 -0.029805 -0.364451 0.930746
-24.321199 -155.995560 155.671143 -0.720597 -0.580899 -0.378546
-4.784490 -146.772079 154.105316 0.197489 -0.482225 -0.853497
5.829930 -78.982292 92.892883 0.926889 0.297720 0.228561
1.448802 -137.870422 169.719940 -0.991459 0.127018 -0.029575
8.980040 -113.379295 136.171432 0.988161 0.149738 0.033404
6.554330 -149.774857 161.267776 -0.082403 -0.958381 0.273341
-17.279995 -161.235733 165.468170 -0.115257 -0.949494 0.291852
-20.609915 -158.538132 154.543060 -0.358306 -0.715115 -0.600190
-11.789730 -116.858894 146.892746 -0.838010 0.508810 -0.197108
3.019838 -105.867004 112.746147 0.313671 -0.728010 -0.609600
5.099522 -110.582062 120.340767 0.537422 -0.645477 -0.542712
-0.507176 -130.401764 140.974854 -0.011336 -0.740052 -0.672454
9.793095 -125.524780 144.046127 0.955421 -0.055569 -0.289971
-0.754450 -111.579338 119.289818 -0.194168 -0.750450 -0.631762
-5.138190 -91.620071 108.401146 -0.842999 0.397730 0.362164
3.635044 -123.791550 134.377731 0.322880 -0.705317 -0.631092
4.501205 -93.410889 99.603729 0.736902 -0.489445 -0.466282
-22.507746 -140.442581 163.679962 -0.410942 0.911476 0.018389
-5.660420 -117.601089 133.586578 -0.993065 -0.093174 -0.071693
-11.827350 -119.438004 151.104126 -0.572140 0.425484 0.701155
8.166810 -110.479179 135.564377 0.813471 0.489381 0.314279
16.473166 -135.956573 155.326111 0.987718 0.155943 -0.009693
5.104477 -149.363571 157.009109 0.209749 -0.923706 -0.320581
-15.125360 -139.505646 159.340607 -0.453914 0.890340 0.035465
1.900863 -106.555435 134.097351 -0.080216 0.818237 0.569257
-25.020550 -147.210205 169.053223 -0.726692 0.189974 0.660173
-12.686545 -161.035568 164.143021 0.271131 -0.937313 0.218935
-25.101654 -156.441177 160.963562 -0.869899 -0.485601 0.086417
2.678648 -139.243454 162.160492 -0.377763 0.188458 0.906520
-6.070285 -141.805786 164.783722 0.290804 0.351539 0.889861
-27.175245 -147.845978 165.120697 -0.951978 0.191692 0.238729
-24.650455 -143.359802 157.362534 -0.540062 0.688374 -0.484226
5.220226 -90.637619 109.889610 0.731381 0.561388 0.387202
-7.660390 -119.286095 142.761765 -0.739701 -0.110524 -0.663797
13.437695 -141.584869 165.025558 0.903211 -0.282085 0.323479
-24.058611 -152.398315 153.190384 -0.697782 -0.125566 -0.705219
5.662431 -147.526611 164.018204 -0.658335 -0.577432 0.482875
-1.730024 -134.038879 161.484055 -0.518771 0.049388 0.853486
-14.883990 -140.851151 154.928223 -0.674667 0.538947 -0.504341
-5.556870 -145.996796 164.900101 0.603481 -0.098094 0.791321
-7.941825 -127.452774 146.917816 -0.817839 -0.234246 -0.525612
1.572271 -111.042465 140.724213 -0.103888 0.855205 0.507771
-0.115503 -102.203674 127.524521 -0.356172 0.747813 0.560283
0.255277 -143.180206 163.100998 0.012357 0.061663 0.998021
6.248395 -95.920357 105.606628 0.890088 -0.321023 -0.323555
-4.067495 -110.260017 119.442558 -0.549775 -0.643247 -0.532899
-1.933132 -103.870888 109.977638 -0.292764 -0.740475 -0.604968
-25.130375 -142.451050 161.111816 -0.708537 0.699487 -0.093238
-9.479995 -131.137360 154.807373 -0.801871 0.325048 0.501344
1.311900 -140.085541 171.624634 -0.942369 -0.306485 0.134194
-17.094635 -150.243942 150.457794 -0.029117 0.131024 -0.990952
-7.791380 -124.169418 154.024948 -0.570212 0.146197 0.808384
3.105129 -142.678558 171.070831 -0.444004 -0.649318 0.617451
-5.025540 -111.197876 134.190399 -0.829205 0.511139 0.226177
6.606390 -115.069611 146.077408 0.681512 0.684898 0.257791
-5.732785 -150.553879 155.359589 0.594070 -0.398822 -0.698586
-4.965025 -108.050522 128.745773 -0.813749 0.491399 0.310386
-8.292035 -134.585373 148.426483 -0.711324 -0.147479 -0.687218
3.348100 -140.646515 165.954514 -0.972738 -0.177566 -0.149171
-26.730539 -153.743805 158.468506 -0.929744 -0.307347 -0.202765
-5.553270 -113.020973 133.683929 -0.980781 0.183496 0.066310
-4.396305 -150.442795 162.393890 0.550921 -0.500479 0.667838
4.485696 -117.076202 127.236328 0.375780 -0.697869 -0.609728
-8.175435 -157.031708 166.713516 0.561720 -0.613789 0.554737
7.917270 -114.906929 131.044968 0.924080 -0.245443 -0.292973
2.348573 -138.529449 172.697067 -0.382884 0.075636 0.920695
-10.223180 -127.008774 151.402878 -0.931676 -0.227070 0.283582
-5.972375 -107.931747 120.423302 -0.955898 -0.235078 -0.176062
-3.004073 -134.527023 145.398163 -0.143872 -0.656433 -0.740538
-6.425205 -155.548508 166.146393 0.867573 -0.290695 0.403502
7.632485 -121.002136 135.546188 0.796561 -0.389020 -0.462767
-0.274592 -82.133827 103.801826 -0.107740 0.747697 0.655241
8.488000 -135.521271 170.596054 0.476816 0.347992 0.807186
-5.740955 -128.440384 156.573959 -0.527205 0.334992 0.780920
6.518455 -86.077286 96.626801 0.987537 -0.106671 -0.115720
9.044595 -147.917206 166.508240 0.223363 -0.813944 0.536288
11.467820 -133.015106 148.321838 0.686256 -0.199868 -0.699361
-6.587585 -94.332863 106.377136 -0.998591 -0.052957 -0.003266
-4.811455 -115.866257 147.043076 -0.049152 0.874013 0.483411
-21.216715 -147.538086 151.684311 -0.325915 0.320990 -0.889238
-14.018390 -156.181442 151.846191 0.128936 -0.541884 -0.830505
7.079975 -129.595734 142.843185 0.516751 -0.550141 -0.655983
-9.987815 -157.331833 154.440857 0.476987 -0.589382 -0.652006
-2.904260 -99.725014 121.530632 -0.675343 0.568741 0.469516
