ply
format ascii 1.0
element vertex 153
property float x
property float y
property float z
property float nx
property float ny
property float nz
end_header
14.450390 24.011206 3.941630 -0.585261 0.528290 0.615126
26.325926 -0.908633 28.901760 0.759060 0.441553 -0.478393
22.207590 1.217747 22.937794 0.852621 0.351658 -0.386490
31.683655 -24.188044 17.902853 0.943983 0.139572 -0.299026
33.484184 -8.284497 35.242439 0.964142 -0.052186 0.260206
10.092125 1.084512 8.367320 -0.884774 -0.414365 0.213251
33.362755 -4.125105 35.683212 0.931085 0.339114 -0.134475
18.317511 10.207956 28.081495 0.762016 0.646501 0.036984
8.457105 24.269634 22.038671 0.157432 0.958631 -0.237155
18.216366 24.037840 9.714160 0.864386 0.469320 0.180487
27.135521 -5.616392 38.897175 -0.579560 -0.634973 0.510803
8.587875 15.100581 43.195591 -0.664758 0.111186 0.738738
19.856236 -21.406569 -8.438185 -0.765247 -0.470645 -0.439193
18.085649 2.721597 -10.679318 -0.743547 0.207797 -0.635577
18.095535 -12.939964 -3.341450 -0.996075 -0.088333 -0.005713
10.575890 21.963074 23.736378 0.633599 0.541144 0.552915
16.462576 12.262823 43.695938 0.463222 0.641480 0.611497
10.245055 15.789171 -3.407340 -0.401352 -0.762258 -0.507818
19.965200 -24.496630 -6.188064 -0.565297 -0.756953 -0.327812
13.085225 34.606915 -6.763095 0.802477 0.288838 0.522114
23.853621 -21.975283 -9.479433 -0.283929 -0.702005 -0.653126
22.230419 1.330677 -2.571962 0.878871 0.451026 0.155436
22.118170 4.111139 -15.353155 0.400138 0.758867 -0.513819
17.481485 10.885224 14.146914 0.976954 0.212372 0.021424
15.820255 23.051239 14.714825 -0.451433 0.879372 -0.151370
11.362030 18.252270 12.817346 -0.326679 0.941784 -0.079518
21.869120 5.986553 43.895714 0.171740 0.049540 0.983896
3.732959 20.142553 27.541765 -0.958520 -0.108943 0.263382
15.606960 18.216024 18.276150 0.943717 0.103608 0.314106
28.067551 -25.786459 18.686832 -0.651791 -0.464693 0.599358
25.761786 -5.404108 -7.968777 0.912787 0.271159 0.305439
-1.989116 20.759735 19.169880 -0.282443 0.148740 0.947682
22.556755 -28.548820 6.635996 -0.564280 -0.817157 0.117653
6.538355 14.830587 25.726103 -0.793886 -0.585541 0.163972
23.814430 3.461871 29.951843 0.768359 0.570735 -0.289630
5.493471 18.072863 13.321024 0.067704 0.972439 -0.223110
33.878929 -13.602320 31.418566 0.977952 -0.173845 0.115703
24.466915 -24.318830 12.949177 -0.841751 -0.234333 0.486357
28.380159 -24.190676 -7.866176 0.406099 -0.829287 -0.383884
11.414155 -6.215546 4.937004 -0.921697 -0.347891 -0.171599
13.530530 32.654991 0.355455 0.392728 0.771959 0.499845
26.960276 -21.414677 -11.773661 -0.050863 -0.725297 -0.686554
12.025135 17.579386 41.384392 0.327216 0.900796 0.285476
25.651735 -7.693657 22.456797 0.811187 0.352798 -0.466379
20.855120 -3.438453 16.781071 0.885746 0.334499 -0.321814
17.484505 -18.534107 -7.534819 -0.949224 -0.314298 0.013817
24.522100 -26.028303 -2.743159 -0.285348 -0.919984 -0.268713
4.344612 11.290522 8.343919 -0.599141 -0.639541 -0.481681
20.866671 -21.928795 8.723172 -0.712425 -0.292466 0.637899
27.568705 -19.204784 17.587160 0.809282 0.422237 -0.408386
-1.348407 19.849155 9.517899 0.643683 0.740829 -0.191948
29.481470 -21.846663 -5.901808 0.965188 0.053444 0.256038
7.867585 5.532077 9.853292 -0.808774 -0.587577 0.025263
15.867705 -0.345807 15.833448 -0.726865 -0.520745 0.447763
18.487700 10.115623 20.009800 0.916176 0.364294 -0.167067
13.280430 -0.443087 -6.699360 -0.881954 0.129705 -0.453138
20.023211 -6.423569 15.470023 -0.764666 -0.472939 0.437738
25.158939 -18.462141 -0.530781 0.915229 0.274155 0.295286
29.588430 -10.210321 -11.864830 0.941394 0.310795 0.131089
18.433226 -17.603987 -3.391539 -0.979675 -0.189681 0.065256
18.609190 -19.901011 1.452265 -0.961789 0.126036 -0.243056
8.272965 35.895142 -0.235065 0.270430 0.788726 0.552067
25.190365 -21.140383 5.688437 0.922326 0.374737 -0.094269
16.934635 -12.600152 -10.009650 -0.943045 0.089094 -0.320513
17.432699 -7.129129 -1.913801 -0.865877 -0.341100 -0.365935
17.607185 25.510315 7.646166 0.055467 0.928921 0.366100
16.819944 9.965812 2.205873 0.741875 0.026162 -0.670027
18.999825 5.099468 -5.423320 0.021522 0.985738 -0.166908
19.200005 -15.399068 3.598226 -0.941649 -0.204984 -0.266981
8.404195 18.709646 31.809162 0.322111 0.755478 0.570524
12.429830 9.417428 1.629097 -0.361737 -0.398698 -0.842726
17.086605 6.158022 -0.351025 -0.233469 0.701421 -0.673424
26.979170 -8.647816 -17.270363 0.631075 0.330852 -0.701627
26.301926 -13.498813 -18.111553 0.035327 -0.388493 -0.920774
13.767440 19.813004 10.460128 -0.638104 0.751024 0.169667
16.445175 -11.979469 2.486222 -0.786342 -0.444162 -0.429402
23.195120 -11.567869 11.613596 0.926013 0.353106 -0.133474
29.970671 -18.425056 27.107964 -0.744106 -0.472093 0.472688
9.485490 19.855913 18.495552 -0.213987 0.809767 -0.546340
2.351519 17.886942 20.429699 -0.650974 -0.503175 0.568373
19.650225 -9.489495 -12.395159 -0.839288 0.412716 -0.353922
12.946240 23.465509 -7.146052 0.901816 0.069056 -0.426566
17.734184 12.899412 8.629266 0.993624 0.107572 0.033753
18.846251 4.307064 7.277380 0.964918 0.210617 0.156763
0.870614 19.682602 15.692076 0.394456 0.807209 -0.439110
1.964208 11.898144 12.238640 -0.531731 -0.815794 0.227471
6.903420 23.059109 -0.498387 -0.193743 0.389341 0.900487
27.973326 -25.834164 1.155485 0.983655 -0.175208 -0.041534
31.783600 -6.203975 32.324966 0.817172 0.298522 -0.493066
31.354290 -11.704802 28.518129 0.771582 0.371154 -0.516629
12.400455 9.972101 37.862957 -0.795127 -0.606442 0.000605
26.319265 -14.150396 -5.679221 0.838701 0.242913 0.487415
17.917931 -10.053095 10.224374 -0.684395 -0.360103 0.633979
29.908825 -18.761524 -13.368394 0.813988 -0.312839 -0.489444
18.846735 18.714573 4.794434 0.998338 0.010986 -0.056571
19.843216 -22.641129 -1.828319 -0.763989 -0.619645 -0.179891
11.573220 7.462114 21.144564 -0.734123 -0.619097 0.278894
23.434410 -3.364873 -14.966638 -0.491293 0.142584 -0.859244
-3.646929 22.542328 13.168567 0.780081 0.587937 -0.214016
22.513895 5.822528 32.699738 0.628682 0.758812 -0.170183
11.896780 -2.327983 8.630890 -0.744204 -0.369835 0.556222
24.139635 -9.897992 17.311214 0.879884 0.359084 -0.311226
18.771166 4.285588 43.215538 -0.403131 -0.587230 0.701887
19.272280 -7.225896 -6.353774 -0.955385 0.010638 -0.295172
-4.242755 17.983704 17.424591 -0.547782 -0.465246 0.695328
12.533535 8.655037 43.582027 -0.536827 -0.522622 0.662331
18.282116 4.022952 38.415142 -0.695070 -0.717793 0.040631
25.271435 1.400500 43.076233 0.127041 -0.226989 0.965576
19.109674 -1.268127 12.076745 0.968417 0.247812 -0.027512
10.828100 17.372898 36.460789 0.147583 0.988905 0.016900
17.091465 29.244820 3.442150 0.713756 0.653730 0.251374
21.109221 -4.932264 7.070298 0.955548 0.242921 0.167083
-3.419003 24.819763 16.602983 0.721538 0.677570 0.142418
15.588830 -2.545259 -7.099550 -0.695278 -0.516438 -0.499880
8.184085 15.391167 35.022446 -0.909072 0.075064 0.409821
11.103085 10.337969 29.994190 -0.744794 -0.649699 0.152230
16.233995 14.353642 20.580072 0.877259 0.462497 0.128503
27.893160 -9.774540 29.698977 -0.862108 -0.424620 0.276527
11.433560 29.168938 -5.589049 0.978382 0.205999 -0.018234
7.301180 15.102265 1.381583 -0.554897 -0.626464 -0.547387
1.171802 23.361198 19.925295 -0.547716 0.756690 0.356969
24.167610 0.305473 -13.497891 0.830942 0.425649 -0.358271
25.849476 -28.134727 2.255035 0.042519 -0.957494 -0.285302
28.606770 -28.807711 9.142201 0.390329 -0.913414 -0.115404
31.330894 -23.939587 21.627913 0.314128 -0.800214 0.510863
22.144350 -11.672734 14.555404 -0.821773 -0.296704 0.486474
18.304569 -25.537786 4.792150 -0.918843 -0.387507 0.074598
1.430303 17.898268 7.032950 0.270383 0.959142 0.083300
11.854425 16.831284 26.919106 0.744497 0.627170 0.228870
4.488539 18.590471 32.876480 -0.804712 -0.033325 0.592729
10.537315 4.628899 4.669585 -0.849624 -0.146717 -0.506569
6.733555 19.529928 2.899223 -0.186275 0.878506 0.439919
16.613525 23.786320 18.373129 0.517832 0.732943 0.441186
26.672075 -5.716557 -11.829312 0.897750 0.440120 0.018411
28.063354 4.934961 40.422981 0.746533 0.557129 0.363724
14.424900 11.643718 0.202656 0.279872 -0.579168 -0.765661
8.272825 17.068066 40.367439 -0.841985 0.531410 0.093082
11.847485 18.048100 -7.166686 0.657874 -0.535487 -0.529581
12.089010 0.796170 -0.913484 -0.907850 0.063868 -0.414402
15.578675 22.469608 -3.667887 0.831212 0.041568 -0.554399
31.194494 -9.428409 37.401318 0.345413 -0.508431 0.788789
16.574505 10.927554 37.851387 0.712403 0.699645 -0.054587
30.398775 -27.514339 11.992565 0.964050 -0.245323 -0.102104
5.537764 23.065977 29.375885 -0.122074 0.837218 0.533071
29.561970 -4.343345 40.540268 0.478219 -0.217116 0.850980
22.833984 -1.566150 30.411238 -0.756660 -0.625258 0.191099
15.843210 -14.763565 6.706750 -0.934839 -0.338505 0.107191
26.389040 -28.775305 14.794859 -0.241439 -0.865216 0.439441
19.482035 4.981302 1.934273 0.836901 0.535164 -0.114876
30.606791 -13.766927 34.101913 -0.353920 -0.691804 0.629403
13.136565 24.051426 20.218662 -0.060681 0.997855 -0.024572
23.019205 -9.398498 -18.242157 -0.507820 -0.021491 -0.861195
14.901715 -4.316590 -0.485670 -0.766523 -0.503347 -0.398855
