ply
format ascii 1.0
element vertex 307
property float x
property float y
property float z
property float nx
property float ny
property float nz
end_header
12.887500 -14.110192 10.029747 -0.750908 -0.305599 0.585445
14.680520 25.992548 6.213978 -0.662257 0.625844 0.411989
26.325926 -6.771404 37.763142 0.758250 0.448474 -0.473210
17.700260 3.448563 -6.753399 -0.469608 0.868048 -0.161125
14.872540 27.343584 -7.460352 0.853817 -0.001685 -0.520570
13.877865 19.429058 25.292589 0.837919 0.241565 0.489427
22.207590 -3.410712 29.797350 0.857094 0.354338 -0.373945
16.244049 15.106013 22.931343 0.889893 0.391247 0.234557
19.732050 -31.313610 -1.266784 -0.890198 -0.431737 -0.145431
21.817526 0.748900 56.583790 0.204220 0.086380 0.975106
24.668440 -17.908175 24.504280 0.877951 0.345070 -0.331856
30.873711 -35.088367 24.832966 0.838813 0.367256 -0.401891
28.389006 -33.322365 -7.784073 0.276356 -0.876364 -0.394479
9.589840 24.013685 2.846317 -0.472829 0.730352 0.492969
11.656835 21.638350 9.541018 -0.429141 0.852243 0.299198
2.320048 19.716782 8.465550 0.162102 0.986758 -0.005578
33.484184 -16.994097 46.743607 0.930520 -0.155337 0.331666
26.639015 -14.389428 -8.806455 0.855585 0.214101 0.471312
10.259575 -2.168737 8.527004 -0.969342 -0.214269 -0.120270
7.636910 25.607332 30.670965 0.305397 0.912675 0.271581
15.102165 -9.486251 -0.646131 -0.835965 -0.399210 -0.376555
18.944759 -22.094080 2.957079 -0.956695 -0.290578 -0.017321
12.000000 4.400239 2.542264 -0.750010 0.152217 -0.643673
30.927000 -8.493715 45.072903 0.713898 0.495727 -0.494575
18.317511 7.762194 35.585140 0.761495 0.646139 0.051285
17.296116 -10.795270 -2.970805 -0.832178 -0.417185 -0.365289
4.860190 26.482586 25.305222 -0.057367 0.934554 -0.351165
14.114460 -11.846830 3.275948 -0.738994 -0.338874 -0.582282
28.301235 -14.417374 -19.199688 0.848740 0.271059 -0.454057
18.416950 28.034960 11.018886 0.884527 0.445333 0.138891
28.333250 -16.705627 49.602596 -0.639648 -0.603480 0.476091
10.112635 8.084774 54.312141 -0.834168 -0.441593 0.330393
23.524435 -4.631487 -19.462933 -0.295177 -0.024513 -0.955128
12.595600 14.431865 35.577682 0.718209 0.691670 0.075954
19.504021 -28.985548 -9.293585 -0.814576 -0.469060 -0.341245
27.007851 -14.029465 51.715485 -0.466426 -0.672778 0.574297
19.206945 -2.815726 39.634541 -0.717267 -0.684259 0.131599
21.076790 -32.210377 13.946470 -0.721435 -0.325155 0.611396
18.236574 -20.098045 -1.956887 -0.991381 -0.107721 0.074561
8.893285 1.544390 11.966710 -0.884949 -0.462117 0.057552
19.516211 -0.120225 -15.063690 -0.640931 -0.240257 -0.729029
17.970539 -16.010687 -5.362415 -0.999887 0.014427 -0.004283
5.261840 8.353475 12.198435 -0.725698 -0.645726 -0.237487
11.723880 23.701048 27.255295 0.553777 0.530304 0.641957
28.237545 -0.817139 50.991356 0.714796 0.699179 0.014649
16.278641 31.669474 -3.123598 0.863053 0.217798 -0.455745
16.157145 18.093449 20.812225 0.938313 0.212329 0.272918
11.308195 16.566656 40.799316 0.645030 0.763742 0.025193
14.278115 9.482681 56.083740 0.172036 0.308604 0.935504
17.591234 13.102102 4.996668 0.987771 -0.042228 -0.150087
7.717665 4.411207 11.026670 -0.847503 -0.461533 -0.262155
19.965200 -33.926823 -5.494817 -0.562328 -0.765679 -0.312286
21.629585 -22.211620 18.107836 -0.778115 -0.270808 0.566744
30.193125 -33.887451 32.638050 -0.215968 -0.727473 0.651261
3.954016 22.911787 34.600533 -0.820815 0.504754 0.267369
15.425130 -21.616945 10.247902 -0.879972 -0.455464 0.134916
24.217875 -31.524460 -8.729909 -0.250842 -0.743846 -0.619493
23.644630 -35.765968 -1.667437 -0.267943 -0.936902 -0.224548
15.977965 -5.195947 -9.510903 -0.638320 -0.532831 -0.555553
22.563620 -2.726053 -2.548202 0.916263 0.344571 0.204285
24.466780 -26.701824 12.150932 0.940846 0.314568 -0.125919
20.541500 5.027338 -13.291754 0.299387 0.949747 -0.091370
26.398544 -9.814199 -11.248964 0.889947 0.343691 0.299785
30.421551 -39.633545 18.613232 0.897009 -0.421879 -0.131885
30.103075 -22.106960 46.991882 -0.529558 -0.634681 0.562803
19.952360 0.328687 5.877770 0.938085 0.273395 0.212726
17.517065 12.287280 18.447790 0.980925 0.189457 0.043493
15.820255 25.795134 16.924145 -0.520390 0.837819 -0.165089
11.543605 20.666204 18.070223 -0.364453 0.880126 -0.304224
17.574289 6.060635 56.106003 0.268760 0.273208 0.923648
12.937490 3.797446 55.238655 -0.657522 -0.678373 0.327835
17.805071 14.106662 9.820840 0.997041 0.017262 0.074913
3.732959 20.731146 33.890030 -0.946925 -0.262735 0.185212
16.365635 20.566685 18.735176 0.952235 -0.078060 0.295221
16.962305 26.416126 19.975363 0.559029 0.785292 0.266088
28.183355 -35.633781 2.373167 0.992092 0.018183 0.124188
28.073765 -38.236294 26.918736 -0.595014 -0.517318 0.615093
12.536390 -2.197553 -5.193162 -0.934756 0.151610 -0.321318
24.402386 -9.334013 -4.424098 0.929977 0.186312 0.316909
-1.356088 22.144030 23.208763 -0.357171 0.056159 0.932349
20.858870 -38.463978 9.524057 -0.562059 -0.825532 -0.050865
20.024870 3.636147 -7.350659 0.303881 0.952506 0.019732
6.538355 14.007154 32.060867 -0.782645 -0.597237 0.175426
31.464115 -34.803539 31.878611 0.511091 -0.716937 0.474117
24.020990 -41.209805 14.763039 -0.513826 -0.842889 0.159752
3.562308 19.026539 39.911083 -0.876089 0.079908 0.475482
20.028854 -14.231008 19.507647 -0.765961 -0.416944 0.489348
15.210660 -4.757200 19.376261 -0.718648 -0.521960 0.459460
21.501865 2.316422 33.308102 0.854520 0.486900 -0.180898
5.493471 19.462622 15.610041 0.040374 0.976516 -0.211629
29.871799 -20.051611 35.819374 0.768405 0.381836 -0.513572
4.841781 25.231203 31.903526 -0.394909 0.892762 0.216849
33.098579 -26.992962 39.078686 0.890388 -0.400274 0.216772
24.466915 -35.609409 19.365808 -0.849780 -0.231453 0.473607
32.270870 -33.480881 29.686682 0.984951 -0.100016 -0.140958
17.275764 1.238648 -13.145464 -0.738039 0.440174 -0.511415
12.491080 15.342439 52.654137 0.493643 0.786190 0.371783
7.399805 21.187248 21.506140 0.030202 0.830621 -0.556018
27.633705 -37.352665 2.047316 0.625415 -0.754154 -0.200270
18.715635 -5.510545 -12.831089 -0.674186 -0.419903 -0.607581
20.862194 -4.727597 54.369518 -0.556382 -0.686558 0.468056
11.386190 -12.359169 7.238157 -0.921607 -0.344946 -0.177910
18.564754 20.461657 3.870166 0.972540 -0.072771 -0.221065
23.414419 -8.463022 52.900661 -0.575929 -0.668794 0.470128
13.701615 37.239937 -1.545993 -0.286162 0.377940 0.880496
26.634054 -24.346258 -17.452063 -0.027756 -0.613866 -0.788922
19.338394 -18.593798 -14.718702 -0.669436 -0.321491 -0.669701
9.290530 28.212456 -1.467667 -0.534132 0.369254 0.760496
11.393425 17.136225 49.540321 0.168257 0.985502 0.021803
25.651735 -14.947440 30.063192 0.820487 0.344932 -0.455877
20.855120 -8.848102 22.259233 0.882366 0.335208 -0.330252
18.752371 4.304298 22.893974 0.939371 0.240368 -0.244551
27.067354 -30.915844 19.954491 0.847934 0.445932 -0.286624
17.484505 -26.040869 -7.841850 -0.959490 -0.281415 -0.013588
25.000620 -37.204758 1.431278 -0.249326 -0.931950 -0.263260
28.620960 -4.292538 53.232574 0.730076 0.272913 0.626504
0.887994 21.568310 18.820677 0.376131 0.773817 -0.509639
26.214270 -18.631714 -22.375402 0.121311 -0.262976 -0.957145
11.576875 -6.172712 4.609179 -0.855624 -0.232073 -0.462655
6.937025 7.977154 9.284818 -0.720062 -0.461218 -0.518449
25.615379 -41.555729 20.297916 -0.406519 -0.843858 0.350208
21.514549 -26.028130 -12.524549 -0.418428 -0.511202 -0.750727
10.073055 -1.026812 12.470090 -0.829460 -0.465116 0.309293
15.634590 32.694256 1.820525 -0.564006 0.487385 0.666598
32.942165 -24.734852 38.600517 0.878762 0.287927 -0.380625
18.483305 -27.628460 11.753522 -0.707677 -0.277989 0.649550
17.929741 -23.087440 -10.663569 -0.800159 -0.276532 -0.532237
28.260370 -29.370146 26.661940 0.764527 0.442782 -0.468447
29.481470 -30.510492 -5.387681 0.974072 -0.020851 0.225277
7.094260 6.060715 14.889923 -0.720541 -0.651244 0.238124
5.828275 9.096536 17.832661 -0.615151 -0.684503 0.391210
8.974740 19.942003 11.346590 -0.176715 0.978486 0.106475
16.466825 -3.943293 24.164528 -0.737278 -0.582380 0.342424
18.840115 -28.804832 -0.761679 -0.957338 -0.217291 -0.190498
27.502026 -2.283102 45.116421 0.631709 0.669591 -0.390629
21.557899 -8.335322 -13.803342 -0.929374 -0.009559 -0.369016
28.381136 -12.486158 53.034000 -0.011786 -0.450895 0.892499
18.192690 8.835042 23.467176 0.963228 0.243509 -0.113560
18.514259 -11.224757 -6.531253 -0.912124 -0.190514 -0.362952
14.238300 -2.739784 -10.057075 -0.744834 -0.304847 -0.593541
21.271690 -11.919094 25.945171 -0.790034 -0.495469 0.361049
24.401230 -5.147853 -7.913525 0.918909 0.333148 0.211232
17.833996 5.045909 15.798926 0.989244 0.142712 -0.032084
11.907100 -2.219753 -0.165725 -0.928283 -0.185738 -0.322169
24.350691 -39.370735 7.240631 -0.255338 -0.918281 -0.302594
24.409334 -23.378313 2.361353 0.948900 0.196276 0.247113
21.431219 4.676790 54.363167 0.546630 0.767570 0.334710
32.811481 -12.505589 48.722473 0.883842 0.119943 0.452147
29.388090 -13.901833 -14.550688 0.947315 0.301569 0.107936
17.759809 5.223059 -0.447433 0.287202 0.775457 -0.562300
18.300421 -24.900047 -3.074190 -0.966821 -0.244479 0.074081
18.609190 -28.716553 3.978046 -0.988948 0.016866 -0.147299
29.742149 -25.441446 -15.163086 0.887084 -0.201274 -0.415415
25.020334 -29.659704 6.919034 0.937041 0.341850 0.071363
17.324989 -17.211432 -12.824715 -0.873951 0.046997 -0.483737
24.182116 -23.156921 -16.208838 -0.456852 -0.541309 -0.705883
17.567110 8.474696 2.733559 0.837782 0.317484 -0.444212
19.207235 4.423486 2.855158 0.887210 0.457714 -0.057931
17.608065 -13.676830 -0.170145 -0.904999 -0.249129 -0.344835
15.601735 -17.928024 5.339110 -0.739460 -0.487191 -0.464590
17.607185 29.698799 7.488982 -0.174612 0.912095 0.370935
16.122835 16.559723 -0.815716 0.801633 -0.250380 -0.542857
16.827209 13.058628 2.003541 0.828421 -0.069648 -0.555759
19.112055 4.873847 -11.658688 -0.351055 0.929584 -0.112398
14.754945 4.640084 -0.355999 -0.429303 0.513281 -0.743129
19.191225 -22.936241 6.570814 -0.879053 -0.188104 -0.438044
9.831860 19.836866 14.468984 -0.276156 0.960842 -0.022832
8.404195 18.441628 39.580936 0.370394 0.786902 0.493551
13.533355 7.040331 0.980577 -0.418289 0.015487 -0.908182
16.184790 3.504390 -3.097057 -0.409200 0.802372 -0.434459
17.155430 -16.661169 -9.468919 -0.968170 0.236182 -0.082857
31.070910 -19.613949 49.260159 0.280074 -0.536666 0.795957
29.012995 -18.985153 -11.062268 0.868250 0.211863 0.448616
30.406836 -4.356599 49.305038 0.868855 0.494913 -0.012378
7.720755 24.275888 0.237948 -0.350582 0.709701 0.611079
1.734523 26.182077 23.866442 -0.392497 0.881897 0.261160
9.312480 13.035442 54.899826 -0.415158 0.223974 0.881748
30.947350 -37.636440 24.800371 0.882652 -0.469004 0.030990
26.389080 -10.951512 -21.715782 0.481673 0.392178 -0.783701
10.541420 1.141734 6.169154 -0.920937 -0.089569 -0.379279
24.419775 -1.593750 39.765240 0.734785 0.581622 -0.349009
24.782310 -15.551888 -21.785315 -0.290298 -0.252159 -0.923116
14.352020 22.678759 12.793836 -0.636191 0.769823 0.051327
31.648081 -31.002371 36.901718 0.089806 -0.762672 0.640521
17.290264 -18.340252 2.112658 -0.896746 -0.309379 -0.316435
23.195120 -18.899597 16.354458 0.921401 0.341092 -0.186216
29.970671 -29.363380 37.182850 -0.619647 -0.559086 0.550873
10.891055 22.803513 22.775349 -0.297146 0.685024 -0.665166
1.385649 23.767879 24.931797 -0.791857 0.135244 0.595543
1.986711 18.817362 24.325558 -0.610405 -0.485522 0.625839
18.275326 -36.218578 8.913889 -0.882961 -0.408734 0.230904
23.136740 2.816177 -21.091179 0.324288 0.449645 -0.832260
19.650225 -13.796835 -15.064752 -0.853340 0.412679 -0.318602
7.466155 10.640414 25.128229 -0.714176 -0.632838 0.299114
17.883205 10.002463 6.945114 0.989319 0.143506 -0.025594
18.497355 4.371945 9.070803 0.968549 0.208300 0.136106
11.966135 5.076564 29.837967 -0.731718 -0.646228 0.216745
1.080566 20.800442 16.192570 0.413174 0.886879 -0.206719
13.867050 28.219940 2.211527 -0.559859 0.536828 0.631168
13.089060 5.446322 46.431808 -0.744489 -0.664333 0.066319
33.644970 -13.770939 45.596577 0.933561 0.244329 -0.262235
1.689781 13.123663 17.183786 -0.481715 -0.750097 0.453105
4.031966 12.024650 9.142467 -0.559269 -0.661856 -0.499165
21.725025 -8.659916 6.197903 0.951893 0.202590 0.229907
15.867825 14.160632 26.109484 0.774887 0.592157 0.221135
29.577484 -23.498312 -9.447922 0.952768 0.146731 0.265901
28.133980 -37.234394 7.285767 0.997169 0.015079 -0.073662
21.735991 2.664678 40.298992 0.713401 0.692975 -0.104135
31.783600 -13.997670 42.742840 0.792390 0.283729 -0.540014
31.418369 -26.488178 33.536480 0.726062 0.450252 -0.519719
11.755755 7.303905 49.015896 -0.791883 -0.607653 -0.060650
26.319265 -20.527601 -5.867945 0.847559 0.230180 0.478186
12.130620 10.443816 0.745596 -0.481776 -0.484131 -0.730417
17.917931 -16.791468 14.396993 -0.667544 -0.344580 0.660037
14.315955 12.516935 37.338387 0.699364 0.711248 0.070825
29.361456 -21.709837 -17.368793 0.844778 -0.124403 -0.520456
18.166275 26.299702 2.363574 0.979787 0.117415 -0.161961
21.334049 -33.527271 1.061453 -0.555713 -0.814845 -0.164959
10.958380 -5.481752 9.533015 -0.933067 -0.262495 0.245929
22.868935 -8.610338 37.918331 -0.767687 -0.594794 0.238489
26.281900 -32.866985 11.262190 0.880861 0.452014 -0.140599
22.770905 -17.291361 7.822718 0.972951 0.209334 0.097698
11.767685 3.245442 23.813354 -0.731750 -0.595985 0.330672
22.982759 -7.898483 -19.974472 -0.450031 0.507868 -0.734535
16.274031 8.980255 55.218250 0.580351 0.658038 0.479769
24.000031 0.812023 44.892399 0.543536 0.798449 -0.258937
20.843695 -15.661857 -18.065180 -0.772372 -0.070704 -0.631224
23.893009 -4.971660 55.709789 -0.140166 -0.438184 0.887890
12.497425 -7.067375 12.158748 -0.743929 -0.389908 0.542717
25.618271 -23.308849 23.585928 0.896679 0.321392 -0.304423
18.771166 -1.450292 55.851627 -0.398653 -0.571528 0.717238
21.010710 -10.114484 -10.229528 -0.877374 -0.073716 -0.474111
13.387210 5.549036 56.260132 -0.225643 -0.186341 0.956223
18.282116 -1.311678 49.637379 -0.706595 -0.705819 0.050432
26.364470 -5.224614 55.401775 0.352145 -0.033375 0.935350
19.404144 -6.242123 17.513149 0.957926 0.270963 -0.094639
10.708990 16.317183 45.993656 0.347070 0.936516 -0.049801
18.230555 24.796412 8.873809 0.995835 -0.031891 0.085409
18.532450 19.023222 6.432087 0.992601 -0.085533 0.086177
17.282045 34.255474 1.456819 0.601765 0.695345 0.392905
21.666765 -13.521186 11.930430 0.960213 0.271482 0.065494
19.242155 7.075897 29.061214 0.889648 0.453384 -0.054486
14.753985 -5.580090 -5.325617 -0.783139 -0.577762 -0.229964
8.184085 13.806275 44.090054 -0.926242 -0.165741 0.338536
11.103085 7.739940 38.058640 -0.738594 -0.657389 0.149392
17.404964 11.582375 25.671244 0.884405 0.461364 0.070507
28.491714 -22.926579 36.894432 -0.887058 -0.328412 0.324458
7.301180 16.794788 0.385832 -0.559043 -0.628299 -0.541028
3.333240 24.299244 29.616608 -0.763174 0.574090 0.296625
25.331310 -6.365483 -18.792936 0.593016 0.376017 -0.711999
12.631335 19.496483 -8.042477 0.507029 -0.584047 -0.633886
27.106409 -40.110264 8.355692 0.366845 -0.902538 -0.225500
28.606770 -41.064259 14.865630 0.548828 -0.824713 -0.136512
30.044991 -38.303307 27.478210 0.350988 -0.804547 0.479074
24.268215 -20.916426 25.088146 -0.851817 -0.317863 0.416378
27.339861 -17.129637 39.587292 -0.859038 -0.437218 0.266259
18.689980 -33.825508 4.120853 -0.778925 -0.523206 -0.345733
29.743006 -28.212208 -13.274888 0.750458 -0.486032 -0.447867
26.305096 -29.514002 0.786823 0.884078 0.354982 0.303962
30.403980 -25.650824 42.603115 -0.710685 -0.555461 0.431729
23.718241 0.496308 -18.511024 0.903304 0.383175 -0.192920
9.887615 18.231915 -5.484857 -0.547631 -0.713926 -0.436360
3.264886 17.376427 25.430515 -0.707639 -0.602088 0.369780
11.321565 -8.628649 5.962388 -0.924949 -0.157509 -0.345919
8.996780 22.807611 32.728996 0.738545 0.515968 0.433968
10.754830 18.387585 33.143764 0.764434 0.580894 0.279648
5.317489 18.217844 41.156021 -0.277999 0.235453 0.931278
10.045995 5.666306 5.635051 -0.773553 -0.178747 -0.608001
5.449712 21.725916 2.823882 -0.099905 0.909395 0.403758
26.741465 -30.743246 -11.477206 -0.085009 -0.762347 -0.641560
15.277085 25.430666 23.849485 0.717368 0.234923 0.655892
6.151615 15.221245 39.347828 -0.764403 -0.608671 0.212619
22.276020 -17.741602 -19.150768 -0.537541 -0.401529 -0.741501
26.672075 -8.948599 -14.706445 0.893191 0.447041 -0.048627
25.236750 2.034717 53.353382 0.611306 0.628140 0.481399
13.646780 11.761166 -0.428493 0.056078 -0.512706 -0.856731
9.575095 26.510124 25.428591 0.146672 0.980093 -0.133807
8.272825 15.451743 50.870850 -0.856848 0.490198 0.159743
22.407545 0.376994 -7.913638 0.846263 0.515726 0.133662
12.852735 0.868287 -0.723456 -0.773216 0.419816 -0.475280
14.919965 13.294130 -0.732264 0.594532 -0.325925 -0.735054
16.601215 24.768272 -3.720902 0.891749 -0.043733 -0.450412
12.022075 17.832973 -6.626671 -0.107381 -0.773568 -0.624550
30.951180 -16.227057 50.674557 0.244931 -0.462752 0.851980
16.574505 7.720682 48.214031 0.672098 0.736265 -0.078722
29.328400 -38.791946 13.870921 0.957286 0.128083 -0.259225
1.582588 12.059443 13.620716 -0.554946 -0.831784 0.013060
33.912815 -23.723013 42.218349 0.995784 -0.088946 0.022410
6.244925 24.135925 36.135441 0.053731 0.830556 0.554337
15.420795 37.448586 -1.796135 0.695274 0.718402 0.022183
-2.877040 17.763527 20.659189 -0.407725 -0.657407 0.633701
30.146500 -10.569509 52.856056 0.592914 -0.131315 0.794487
19.038561 -3.585366 13.962239 0.963950 0.222969 0.145206
13.355595 22.209936 -8.657834 0.813386 -0.247691 -0.526358
23.479734 -8.436934 44.113934 -0.765667 -0.635634 0.098608
16.557964 -26.518991 8.913504 -0.983771 -0.083731 -0.158691
27.313154 -41.393677 23.077255 0.148137 -0.915959 0.372927
11.050780 14.978077 -2.738454 -0.397324 -0.676936 -0.619589
20.152201 2.801449 -1.835848 0.757506 0.652502 0.020645
29.686295 -19.428576 -13.803071 0.994785 0.087456 0.052486
9.725500 10.089267 3.983513 -0.647849 -0.429980 -0.628816
31.558849 -25.198343 43.935020 0.136793 -0.743440 0.654663
13.136565 26.544992 23.979111 -0.014330 0.997131 0.074322
23.143335 -11.546436 -22.998327 -0.500780 0.076449 -0.862192
16.011589 9.100297 1.290986 0.416002 0.090436 -0.904856
21.002344 3.738811 -19.326340 -0.641235 0.326688 -0.694329
13.925055 -4.909158 0.467079 -0.822483 -0.472784 -0.316222
