ply
format ascii 1.0
element vertex 286
property float x
property float y
property float z
property float nx
property float ny
property float nz
end_header
24.775000 -28.078356 18.304407 -0.750908 -0.305599 0.585445
28.361040 33.757420 4.851289 -0.662257 0.625844 0.411989
51.651852 -22.177986 59.166939 0.758250 0.448474 -0.473210
34.400520 1.874644 -10.614423 -0.469608 0.868048 -0.161125
26.755730 20.121889 35.173634 0.837919 0.241565 0.489427
43.415180 -15.539637 46.388458 0.857094 0.354338 -0.373945
31.488100 13.984148 32.398983 0.889893 0.391247 0.234557
38.464100 -52.141380 4.367495 -0.890198 -0.431737 -0.145431
42.635052 -14.303357 86.413567 0.204220 0.086380 0.975106
48.336880 -36.622814 41.084255 0.877951 0.345070 -0.331856
60.747421 -62.864777 44.857529 0.838813 0.367256 -0.401891
55.778011 -53.960957 -5.180987 0.276356 -0.876364 -0.394479
22.313669 26.488729 10.750432 -0.429141 0.852243 0.299198
65.968369 -39.465996 74.798630 0.930520 -0.155337 0.331666
52.278030 -24.916012 -10.345174 0.855585 0.214101 0.471312
19.519150 -9.595608 13.739952 -0.969342 -0.214269 -0.120270
14.273820 28.511951 42.192436 0.305397 0.912675 0.271581
29.204330 -18.998846 1.155660 -0.835965 -0.399210 -0.376555
36.889519 -38.897114 9.047755 -0.956695 -0.290578 -0.017321
23.000000 1.554214 3.369119 -0.750010 0.152217 -0.643673
60.854000 -26.194799 70.633675 0.713898 0.495727 -0.494575
35.635021 0.383315 53.079769 0.761495 0.646139 0.051285
33.592232 -20.550749 -2.137362 -0.832178 -0.417185 -0.365289
8.720381 30.867718 33.849354 -0.057367 0.934554 -0.351165
27.228920 -23.342983 7.581793 -0.738994 -0.338874 -0.582282
55.602470 -22.978933 -26.177153 0.848740 0.271059 -0.454057
35.833900 35.954449 11.784019 0.884527 0.445333 0.138891
55.666500 -39.570992 79.100227 -0.639648 -0.603480 0.476091
19.225269 -2.692182 81.554703 -0.834168 -0.441593 0.330393
46.048870 -8.016956 -28.442265 -0.295177 -0.024513 -0.955128
24.191200 10.548048 51.797993 0.718209 0.691670 0.075954
38.008041 -47.064941 -8.307254 -0.814576 -0.469060 -0.341245
53.015701 -35.895485 81.810127 -0.466426 -0.672778 0.574297
37.413891 -16.506742 61.265129 -0.717267 -0.684259 0.131599
41.153580 -56.405643 27.720400 -0.721435 -0.325155 0.611396
35.473148 -34.919540 1.179613 -0.991381 -0.107721 0.074561
16.786570 -4.592690 18.274143 -0.884949 -0.462117 0.057552
38.032421 -1.980600 -22.597948 -0.640931 -0.240257 -0.729029
34.941078 -28.042509 -4.788305 -0.999887 0.014427 -0.004283
9.523681 5.738925 17.330280 -0.725698 -0.645726 -0.237487
22.447760 26.257738 37.350708 0.553777 0.530304 0.641957
55.475090 -15.624477 78.190056 0.714796 0.699179 0.014649
31.314289 18.940075 28.600817 0.938313 0.212329 0.272918
21.616390 12.806468 59.348141 0.645030 0.763742 0.025193
27.556231 -0.899484 83.988014 0.172036 0.308604 0.935504
34.182468 14.346698 5.451663 0.987771 -0.042228 -0.150087
14.435330 -0.045149 16.295643 -0.847503 -0.461533 -0.262155
38.930401 -55.318085 -1.577463 -0.562328 -0.765679 -0.312286
42.259171 -41.962078 32.157001 -0.778115 -0.270808 0.566744
59.386250 -62.521488 56.522240 -0.215968 -0.727473 0.651261
6.908033 23.655964 48.693779 -0.820815 0.504754 0.267369
29.850260 -39.558777 20.066692 -0.879972 -0.455464 0.134916
47.435749 -51.041126 -6.964717 -0.250842 -0.743846 -0.619493
46.289261 -58.849617 4.605046 -0.267943 -0.936902 -0.224548
30.955931 -10.772711 -13.169758 -0.638320 -0.532831 -0.555553
44.127239 -8.335289 -3.030389 0.916263 0.344571 0.204285
47.933559 -47.669651 23.935095 0.940846 0.314568 -0.125919
40.083000 5.525797 -20.878345 0.299387 0.949747 -0.091370
51.797089 -17.478991 -14.938564 0.889947 0.343691 0.299785
59.843102 -68.606049 36.245590 0.897009 -0.421879 -0.131885
59.206150 -47.304321 76.150833 -0.529558 -0.634681 0.562803
38.904720 -5.285392 9.227326 0.938085 0.273395 0.212726
34.034130 10.542945 26.103807 0.980925 0.189457 0.043493
30.640511 31.416569 21.209135 -0.520390 0.837819 -0.165089
22.087210 23.382753 23.932480 -0.364453 0.880126 -0.304224
34.148579 -6.118273 84.673744 0.268760 0.273208 0.923648
24.874981 -9.401736 83.783157 -0.657522 -0.678373 0.327835
34.610142 14.958565 12.611435 0.997041 0.017262 0.074913
6.465917 20.468414 48.026470 -0.946925 -0.262735 0.185212
31.731270 23.104445 24.964699 0.952235 -0.078060 0.295221
32.924610 31.781660 25.740326 0.559029 0.785292 0.266088
55.366711 -59.417828 10.736976 0.992092 0.018183 0.124188
55.147530 -68.058907 48.635445 -0.595014 -0.517318 0.615093
24.072781 -7.026154 -7.161469 -0.934756 0.151610 -0.321318
47.804771 -18.047253 -4.630237 0.929977 0.186312 0.316909
40.717739 -65.092583 22.172649 -0.562059 -0.825532 -0.050865
39.049740 2.274250 -11.560264 0.303881 0.952506 0.019732
12.076710 10.570739 46.519936 -0.782645 -0.597237 0.175426
61.928230 -63.772778 55.539490 0.511091 -0.716937 0.474117
47.041981 -70.274597 30.678871 -0.513826 -0.842889 0.159752
6.124616 16.724051 57.526096 -0.876089 0.079908 0.475482
39.057709 -30.067772 32.769928 -0.765961 -0.416944 0.489348
29.421320 -15.606459 30.765184 -0.718648 -0.521960 0.459460
42.003731 -7.481286 50.647293 0.854520 0.486900 -0.180898
9.986942 22.017328 20.412888 0.040374 0.976516 -0.211629
58.743599 -42.044262 58.734570 0.768405 0.381836 -0.513572
8.683563 27.704031 44.142269 -0.394909 0.892762 0.216849
65.197159 -53.242382 65.023293 0.890388 -0.400274 0.216772
47.933830 -62.617382 36.625870 -0.849780 -0.231453 0.473607
63.541740 -61.339787 51.947472 0.984951 -0.100016 -0.140958
33.551529 -0.275311 -19.933771 -0.738039 0.440174 -0.511415
23.982161 8.682933 77.645798 0.493643 0.786190 0.371783
13.799610 23.522266 29.068914 0.030202 0.830621 -0.556018
54.267410 -61.975014 10.567848 0.625415 -0.754154 -0.200270
36.431271 -10.619681 -18.169163 -0.674186 -0.419903 -0.607581
40.724388 -22.226732 84.082581 -0.556382 -0.686558 0.468056
21.772381 -24.878399 13.717030 -0.921607 -0.344946 -0.177910
36.129509 25.775833 2.333270 0.972540 -0.072771 -0.221065
45.828838 -27.639030 82.555832 -0.575929 -0.668794 0.470128
52.268108 -38.441547 -21.622889 -0.027756 -0.613866 -0.788922
37.676788 -30.196529 -18.553478 -0.669436 -0.321491 -0.669701
21.786850 12.009427 72.559273 0.168257 0.985502 0.021803
50.303471 -33.170059 48.991028 0.820487 0.344932 -0.455877
40.710239 -22.389355 35.937504 0.882366 0.335208 -0.330252
36.504742 -2.468497 34.399509 0.939371 0.240368 -0.244551
53.134708 -55.577408 36.628899 0.847934 0.445932 -0.286624
33.969009 -42.854328 -6.655980 -0.959490 -0.281415 -0.013588
49.001240 -61.632290 9.600951 -0.249326 -0.931950 -0.263260
56.241920 -21.347223 82.267227 0.730076 0.272913 0.626504
51.428539 -28.795889 -30.213602 0.121311 -0.262976 -0.957145
22.153749 -14.950655 8.532598 -0.855624 -0.232073 -0.462655
12.874050 5.720458 12.962165 -0.720062 -0.461218 -0.518449
50.230759 -71.855988 39.178860 -0.406519 -0.843858 0.350208
42.029099 -41.942974 -13.793944 -0.418428 -0.511202 -0.750727
19.146111 -8.606595 19.530951 -0.829460 -0.465116 0.309293
64.884331 -49.710373 63.864544 0.878762 0.287927 -0.380625
35.966610 -49.005970 23.506020 -0.707677 -0.277989 0.649550
34.859482 -37.816395 -11.518297 -0.800159 -0.276532 -0.532237
55.520741 -54.499664 46.555347 0.764527 0.442782 -0.468447
57.962940 -50.132648 -2.064938 0.974072 -0.020851 0.225277
13.188520 1.732531 21.868311 -0.720541 -0.651244 0.238124
10.656549 5.798024 25.774227 -0.615151 -0.684503 0.391210
16.949480 23.559898 13.824893 -0.176715 0.978486 0.106475
31.933649 -15.278271 37.906559 -0.737278 -0.582380 0.342424
36.680229 -48.414692 4.659317 -0.957338 -0.217291 -0.190498
54.004051 -16.739292 69.517014 0.631709 0.669591 -0.390629
42.115799 -14.738915 -19.112638 -0.929374 -0.009559 -0.369016
55.762272 -33.794922 83.525330 -0.011786 -0.450895 0.892499
35.385380 4.326315 34.409962 0.963228 0.243509 -0.113560
36.028519 -20.527025 -7.480996 -0.912124 -0.190514 -0.362952
27.476601 -6.925951 -14.469860 -0.744834 -0.304847 -0.593541
41.543381 -27.771049 42.139118 -0.790034 -0.495469 0.361049
47.802460 -11.003687 -10.744820 0.918909 0.333148 0.211232
34.667992 0.013015 23.446753 0.989244 0.142712 -0.032084
22.814199 -8.017589 0.503612 -0.928283 -0.185738 -0.322169
47.701382 -66.039368 18.865860 -0.255338 -0.918281 -0.302594
47.818668 -40.740566 8.384598 0.948900 0.196276 0.247113
41.862438 -7.895021 82.281586 0.546630 0.767570 0.334710
64.622963 -33.003288 76.959091 0.883842 0.119943 0.452147
57.776180 -23.078869 -19.191162 0.947315 0.301569 0.107936
34.519619 3.377502 -1.343335 0.287202 0.775457 -0.562300
35.600842 -42.024059 0.391724 -0.966821 -0.244479 0.074081
36.218380 -49.182972 11.864937 -0.988948 0.016866 -0.147299
58.484299 -40.546406 -17.926317 0.887084 -0.201274 -0.415415
49.040668 -51.180347 16.526089 0.937041 0.341850 0.071363
33.649979 -28.450825 -15.930711 -0.873951 0.046997 -0.483737
47.364231 -36.866032 -19.954992 -0.456852 -0.541309 -0.705883
34.134220 7.726478 2.884528 0.837782 0.317484 -0.444212
37.414471 1.530040 3.841482 0.887210 0.457714 -0.057931
34.216129 -25.475159 2.679177 -0.904999 -0.249129 -0.344835
30.203470 -33.002556 11.883980 -0.739460 -0.487191 -0.464590
34.214371 39.162186 6.088198 -0.174612 0.912095 0.370935
31.245670 20.722574 -4.063892 0.801633 -0.250380 -0.542857
32.654419 14.850570 0.898992 0.828421 -0.069648 -0.555759
37.224110 4.980847 -18.360628 -0.351055 0.929584 -0.112398
28.509890 2.471743 -1.092965 -0.429303 0.513281 -0.743129
37.382450 -40.868736 14.714808 -0.879053 -0.188104 -0.438044
18.663719 22.804951 18.602852 -0.276156 0.960842 -0.022832
15.808390 15.895641 57.134422 0.370394 0.786902 0.493551
26.066710 5.874679 0.486532 -0.418289 0.015487 -0.908182
31.369579 1.263267 -5.053491 -0.409200 0.802372 -0.434459
33.310860 -28.251530 -10.921931 -0.968170 0.236182 -0.082857
61.141819 -43.937496 79.132385 0.280074 -0.536666 0.795957
57.025990 -31.489346 -12.907227 0.868250 0.211863 0.448616
59.813671 -20.696739 76.294617 0.868855 0.494913 -0.012378
2.469047 30.683855 31.714169 -0.392497 0.881897 0.261160
17.624960 4.739756 81.507233 -0.415158 0.223974 0.881748
60.894699 -66.741348 45.293205 0.882652 -0.469004 0.030990
51.778160 -17.218361 -30.671362 0.481673 0.392178 -0.783701
20.082840 -4.101965 9.516474 -0.920937 -0.089569 -0.379279
47.839550 -14.669578 61.231529 0.734785 0.581622 -0.349009
48.564621 -24.215216 -29.901054 -0.290298 -0.252159 -0.923116
27.704041 27.454529 15.508932 -0.636191 0.769823 0.051327
62.296162 -58.937302 62.469715 0.089806 -0.762672 0.640521
33.580528 -33.016148 7.046003 -0.896746 -0.309379 -0.316435
45.390240 -36.581207 28.854326 0.921401 0.341092 -0.186216
58.941341 -56.493340 62.585915 -0.619647 -0.559086 0.550873
20.782110 25.743389 30.695086 -0.297146 0.685024 -0.665166
1.771298 26.802151 33.797413 -0.791857 0.135244 0.595543
2.973423 19.373976 33.816574 -0.610405 -0.485522 0.625839
35.550652 -61.554798 20.815174 -0.882961 -0.408734 0.230904
45.273479 3.642012 -32.342003 0.324288 0.449645 -0.832260
38.300449 -22.820955 -19.994497 -0.853340 0.412679 -0.318602
13.932310 6.760968 36.597206 -0.714176 -0.632838 0.299114
34.766411 9.252303 9.011131 0.989319 0.143506 -0.025594
35.994709 0.267569 13.322754 0.968549 0.208300 0.136106
22.932270 -2.614375 44.833725 -0.731718 -0.646228 0.216745
25.178120 -5.211667 70.049141 -0.744489 -0.664333 0.066319
66.289940 -34.336033 72.436836 0.933561 0.244329 -0.262235
2.379562 12.058197 24.018396 -0.481715 -0.750097 0.453105
7.063932 11.915189 11.974298 -0.559269 -0.661856 -0.499165
42.450050 -19.043295 11.427262 0.951893 0.202590 0.229907
30.735649 11.938207 37.421932 0.774887 0.592157 0.221135
58.154968 -38.674038 -9.587622 0.952768 0.146731 0.265901
55.267960 -62.792587 18.527716 0.997169 0.015079 -0.073662
42.471981 -8.282209 61.233738 0.713401 0.692975 -0.104135
62.567200 -34.137959 68.131477 0.792390 0.283729 -0.540014
61.836739 -51.417534 56.481888 0.726062 0.450252 -0.519719
22.511511 -2.873269 73.632973 -0.791883 -0.607653 -0.060650
51.638531 -34.829140 -4.698272 0.847559 0.230180 0.478186
23.261240 11.105702 -0.519817 -0.481776 -0.484131 -0.730417
34.835861 -32.995968 25.469976 -0.667544 -0.344580 0.660037
27.631910 7.294687 54.845718 0.699364 0.711248 0.070825
57.722912 -34.440002 -21.998178 0.844778 -0.124403 -0.520456
35.332550 34.958874 -1.074496 0.979787 0.117415 -0.161961
41.668098 -55.958054 8.336934 -0.555713 -0.814845 -0.164959
20.916759 -14.835636 15.903971 -0.933067 -0.262495 0.245929
44.737869 -25.009733 59.753685 -0.767687 -0.594794 0.238489
51.563801 -56.894897 23.755138 0.880861 0.452014 -0.140599
44.541809 -32.505466 15.547255 0.972951 0.209334 0.097698
22.535370 -4.257112 36.002155 -0.731750 -0.595985 0.330672
44.965519 -12.897802 -28.599468 -0.450031 0.507868 -0.734535
31.548059 -1.500231 82.764862 0.580351 0.658038 0.479769
47.000061 -11.980238 68.586098 0.543536 0.798449 -0.258937
40.687389 -25.091385 -24.211332 -0.772372 -0.070704 -0.631224
46.786018 -22.853930 86.171387 -0.140166 -0.438184 0.887890
23.994850 -17.751965 20.207109 -0.743929 -0.389908 0.542717
50.236542 -44.677494 40.713562 0.896679 0.321392 -0.304423
36.542332 -17.515049 85.716782 -0.398653 -0.571528 0.717238
41.021420 -18.130747 -13.327941 -0.877374 -0.073716 -0.474111
25.774420 -6.927212 85.006058 -0.225643 -0.186341 0.956223
35.564232 -16.120161 76.221054 -0.706595 -0.705819 0.050432
51.728939 -23.180714 85.750214 0.352145 -0.033375 0.935350
37.808289 -17.514322 28.209003 0.957926 0.270963 -0.094639
20.417980 11.436921 67.310837 0.347070 0.936516 -0.049801
35.461109 31.428102 9.132198 0.995835 -0.031891 0.085409
36.064899 23.095947 6.511136 0.992601 -0.085533 0.086177
42.333530 -27.542858 21.088495 0.960213 0.271482 0.065494
37.484310 0.580180 43.269279 0.889648 0.453384 -0.054486
28.507971 -12.155269 -6.719012 -0.783139 -0.577762 -0.229964
15.368170 7.973364 64.888382 -0.926242 -0.165741 0.338536
21.206169 -0.121739 56.853153 -0.738594 -0.657389 0.149392
33.809929 8.092907 37.245235 0.884405 0.461364 0.070507
55.983429 -46.629936 60.920361 -0.887058 -0.328412 0.324458
5.666480 26.719503 40.834957 -0.763174 0.574090 0.296625
49.662621 -10.786856 -27.091034 0.593016 0.376017 -0.711999
53.212818 -67.378662 20.705864 0.366845 -0.902538 -0.225500
56.213539 -70.072357 30.807478 0.548828 -0.824713 -0.136512
59.089981 -68.267593 49.500744 0.350988 -0.804547 0.479074
47.536430 -41.318031 42.546955 -0.851817 -0.317863 0.416378
53.679722 -38.309425 63.919586 -0.859038 -0.437218 0.266259
36.379959 -56.995251 13.055682 -0.778925 -0.523206 -0.345733
58.486012 -45.128174 -14.521302 0.750458 -0.486032 -0.447867
51.610191 -49.790279 7.154018 0.884078 0.354982 0.303962
59.807961 -51.868542 70.138206 -0.710685 -0.555461 0.431729
46.436481 -0.384485 -27.968462 0.903304 0.383175 -0.192920
5.529772 16.967794 35.774784 -0.707639 -0.602088 0.369780
21.643129 -18.950790 11.062426 -0.924949 -0.157509 -0.345919
16.993561 23.853704 45.861759 0.738545 0.515968 0.433968
20.509661 17.039417 47.335701 0.764434 0.580894 0.279648
9.634978 15.254622 59.577179 -0.277999 0.235453 0.931278
19.091990 2.894359 7.840779 -0.773553 -0.178747 -0.608001
52.482929 -49.327412 -11.299876 -0.085009 -0.762347 -0.641560
29.554171 29.542076 31.831453 0.717368 0.234923 0.655892
11.303230 11.032791 57.392616 -0.764403 -0.608671 0.212619
43.552040 -28.053741 -25.469423 -0.537541 -0.401529 -0.741501
52.344151 -15.501412 -20.371981 0.893191 0.447041 -0.048627
49.473499 -11.728701 81.246124 0.611306 0.628140 0.481399
26.293560 13.336730 -2.559829 0.056078 -0.512706 -0.856731
18.150190 30.886185 34.032101 0.146672 0.980093 -0.133807
15.545650 9.189164 74.907593 -0.856848 0.490198 0.159743
43.815090 -2.584847 -11.797344 0.846263 0.515726 0.133662
24.705469 -3.205768 -0.934461 -0.773216 0.419816 -0.475280
28.839930 15.730537 -3.314710 0.594532 -0.325925 -0.735054
32.202431 33.784218 -10.054374 0.891749 -0.043733 -0.450412
60.902359 -39.045921 80.642540 0.244931 -0.462752 0.851980
32.149010 -2.085445 72.331696 0.672098 0.736265 -0.078722
57.656799 -66.420319 28.858910 0.957286 0.128083 -0.259225
2.165177 11.115207 18.791666 -0.554946 -0.831784 0.013060
66.825630 -48.857632 69.184692 0.995784 -0.088946 0.022410
11.489850 25.228956 50.799519 0.053731 0.830556 0.554337
59.292999 -30.840420 82.889099 0.592914 -0.131315 0.794487
37.077122 -12.789565 22.292046 0.963950 0.222969 0.145206
45.959469 -25.925615 69.161575 -0.765667 -0.635634 0.098608
32.115929 -46.774395 18.967049 -0.983771 -0.083731 -0.158691
53.626308 -72.138443 43.383171 0.148137 -0.915959 0.372927
21.101561 18.678684 -6.692512 -0.397324 -0.676936 -0.619589
39.304401 -0.048112 -2.997755 0.757506 0.652502 0.020645
58.372589 -31.642979 -16.999226 0.994785 0.087456 0.052486
18.451000 9.948690 4.481683 -0.647849 -0.429980 -0.628816
62.117699 -51.432743 72.081589 0.136793 -0.743440 0.654663
25.273130 31.215406 31.816729 -0.014330 0.997131 0.074322
45.286671 -17.880617 -32.512398 -0.500780 0.076449 -0.862192
31.023180 8.954550 0.567162 0.416002 0.090436 -0.904856
41.004688 4.711773 -29.828466 -0.641235 0.326688 -0.694329
26.850109 -12.236266 1.980153 -0.822483 -0.472784 -0.316222
