ply
format ascii 1.0
element vertex 323
property float x
property float y
property float z
property float nx
property float ny
property float nz
end_header
12.887500 -8.238253 7.004556 -0.750908 -0.305599 0.585445
14.680520 22.566490 6.438945 -0.662257 0.625844 0.411989
26.325926 -0.908633 28.901760 0.758250 0.448474 -0.473210
17.700260 4.349878 -4.937242 -0.469608 0.868048 -0.161125
14.872540 22.797987 -4.061966 0.853817 -0.001685 -0.520570
13.877865 18.623234 20.811478 0.837919 0.241565 0.489427
22.207590 1.217747 22.937794 0.857094 0.354338 -0.373945
16.244049 15.137470 18.726997 0.889893 0.391247 0.234557
19.732050 -22.222832 -2.760823 -0.890198 -0.431737 -0.145431
21.817526 6.030924 43.912998 0.204220 0.086380 0.975106
-2.293190 13.880810 11.412721 -0.470518 -0.880689 0.054762
24.668440 -10.315589 17.979021 0.877951 0.345070 -0.331856
30.873711 -23.590218 17.210730 0.838813 0.367256 -0.401891
28.389006 -24.165159 -7.923533 0.276356 -0.876364 -0.394479
9.589840 20.834772 3.715227 -0.472829 0.730352 0.492969
11.656835 19.395210 8.754262 -0.429141 0.852243 0.299198
2.320048 17.844267 7.807675 0.162102 0.986758 -0.005578
33.484184 -8.284497 35.242439 0.930520 -0.155337 0.331666
-3.937343 23.120340 18.277029 -0.039469 0.326977 0.944208
26.639015 -9.575532 -7.587701 0.855585 0.214101 0.471312
10.259575 0.912706 6.552520 -0.969342 -0.214269 -0.120270
7.636910 23.724180 25.341070 0.305397 0.912675 0.271581
15.102165 -5.295674 -0.981308 -0.835965 -0.399210 -0.376555
18.944759 -14.837253 1.056425 -0.956695 -0.290578 -0.017321
12.000000 5.639606 2.312480 -0.750010 0.152217 -0.643673
30.927000 -1.806270 34.455605 0.713898 0.495727 -0.494575
18.317511 10.207956 28.081495 0.761495 0.646139 0.051285
17.296116 -6.446978 -2.858081 -0.832178 -0.417185 -0.365289
4.860190 24.082069 21.241104 -0.057367 0.934554 -0.351165
14.114460 -6.888855 1.913125 -0.738994 -0.338874 -0.582282
28.301235 -10.215801 -15.631750 0.848740 0.271059 -0.454057
18.416950 24.432934 10.278602 0.884527 0.445333 0.138891
28.333250 -7.891099 37.471920 -0.639648 -0.603480 0.476091
10.112635 11.572275 42.591835 -0.834168 -0.441593 0.330393
23.524435 -2.659060 -15.252958 -0.295177 -0.024513 -0.955128
12.595600 15.368566 28.472729 0.718209 0.691670 0.075954
19.504021 -20.899141 -8.833464 -0.814576 -0.469060 -0.341245
27.007851 -5.694493 39.266190 -0.466426 -0.672778 0.574297
19.206945 2.263699 30.585323 -0.717267 -0.684259 0.131599
21.076790 -22.011206 8.957963 -0.721435 -0.325155 0.611396
18.236574 -13.585200 -2.627238 -0.991381 -0.107721 0.074561
8.893285 3.990703 9.435217 -0.884949 -0.462117 0.057552
19.516211 1.093656 -11.580254 -0.640931 -0.240257 -0.729029
17.970539 -10.625074 -5.019173 -0.999887 0.014427 -0.004283
5.261840 9.273429 10.019831 -0.725698 -0.645726 -0.237487
11.723880 22.045765 22.584522 0.553777 0.530304 0.641957
28.237545 4.486225 39.492298 0.714796 0.699179 0.014649
16.278641 26.403540 -0.448650 0.863053 0.217798 -0.455745
16.157145 17.323036 17.265026 0.938313 0.212329 0.272918
11.308195 17.331299 32.640354 0.645030 0.763742 0.025193
14.278115 12.759441 44.045925 0.172036 0.308604 0.935504
17.591234 12.519285 4.729690 0.987771 -0.042228 -0.150087
7.717665 6.153118 8.878449 -0.847503 -0.461533 -0.262155
19.965200 -24.496630 -6.188064 -0.562328 -0.765679 -0.312286
21.629585 -14.026375 12.773232 -0.778115 -0.270808 0.566744
30.193125 -22.196348 23.321863 -0.215968 -0.727473 0.651261
3.954016 21.872246 28.221357 -0.820815 0.504754 0.267369
15.425130 -14.034064 6.726536 -0.879972 -0.455464 0.134916
24.217875 -22.830221 -8.548412 -0.250842 -0.743846 -0.619493
23.644630 -25.691956 -3.335873 -0.267943 -0.936902 -0.224548
15.977965 -2.503462 -7.585579 -0.638320 -0.532831 -0.555553
22.563620 -0.177788 -2.050756 0.916263 0.344571 0.204285
24.466780 -17.855515 7.896448 0.940846 0.314568 -0.125919
20.541500 5.182360 -9.902710 0.299387 0.949747 -0.091370
26.398544 -6.180564 -9.205404 0.889947 0.343691 0.299785
30.421551 -27.477539 12.127294 0.897009 -0.421879 -0.131885
30.103075 -12.226101 35.130219 -0.529558 -0.634681 0.562803
19.952360 2.687544 4.651173 0.938085 0.273395 0.212726
17.517065 12.689430 15.089798 0.980925 0.189457 0.043493
15.820255 23.051239 14.714825 -0.520390 0.837819 -0.165089
13.246915 34.624027 -6.982425 0.803509 0.254898 0.537960
11.543605 19.150646 15.296378 -0.364453 0.880126 -0.304224
17.574289 10.112754 43.859455 0.268760 0.273208 0.923648
12.937490 8.309849 43.053581 -0.657522 -0.678373 0.327835
17.805071 13.583775 8.522477 0.997041 0.017262 0.074913
3.732959 20.142553 27.541765 -0.946925 -0.262735 0.185212
16.365635 19.113216 15.805001 0.952235 -0.078060 0.295221
16.962305 23.713390 17.112852 0.559029 0.785292 0.266088
28.183355 -25.349157 -0.201346 0.992092 0.018183 0.124188
28.073765 -25.901958 18.637342 -0.595014 -0.517318 0.615093
12.536390 0.073731 -4.065993 -0.934756 0.151610 -0.321318
24.402386 -5.402749 -3.895674 0.929977 0.186312 0.316909
-1.356088 20.600065 19.360598 -0.357171 0.056159 0.932349
20.858870 -27.113539 5.163618 -0.562059 -0.825532 -0.050865
20.024870 4.459481 -5.388242 0.303881 0.952506 0.019732
6.538355 14.830587 25.726103 -0.782645 -0.597237 0.175426
31.464115 -22.950432 22.679672 0.511091 -0.716937 0.474117
24.020990 -28.926441 9.054152 -0.513826 -0.842889 0.159752
3.562308 19.181908 32.099449 -0.876089 0.079908 0.475482
20.028854 -7.767581 14.331456 -0.765961 -0.416944 0.489348
15.210660 -0.444481 14.793705 -0.718648 -0.521960 0.459460
21.501865 5.858430 25.995350 0.854520 0.486900 -0.180898
5.493471 18.072863 13.321024 0.040374 0.976516 -0.211629
29.871799 -11.300682 26.607164 0.768405 0.381836 -0.513572
4.841781 23.506496 26.272449 -0.394909 0.892762 0.216849
33.098579 -16.477957 28.716076 0.890388 -0.400274 0.216772
24.466915 -24.318830 12.949177 -0.849780 -0.231453 0.473607
32.270870 -22.057417 21.062265 0.984951 -0.100016 -0.140958
17.275764 2.259345 -10.015027 -0.738039 0.440174 -0.511415
12.491080 17.089632 41.740856 0.493643 0.786190 0.371783
7.399805 19.758354 17.986139 0.030202 0.830621 -0.556018
27.633705 -26.698641 -0.555807 0.625415 -0.754154 -0.200270
18.715635 -2.944531 -10.173497 -0.674186 -0.419903 -0.607581
20.862194 1.661358 41.873589 -0.556382 -0.686558 0.468056
11.386190 -7.049462 4.948624 -0.921607 -0.344946 -0.177910
18.564754 18.147123 4.296060 0.972540 -0.072771 -0.221065
23.414419 -1.316581 40.514629 -0.575929 -0.668794 0.470128
13.701615 30.807922 1.103691 -0.286162 0.377940 0.880496
26.634054 -17.794840 -14.870425 -0.027756 -0.613866 -0.788922
19.338394 -13.180831 -12.412916 -0.669436 -0.321491 -0.669701
9.290530 23.827036 0.626950 -0.534132 0.369254 0.760496
11.393425 18.292334 39.438129 0.168257 0.985502 0.021803
25.651735 -7.693657 22.456797 0.820487 0.344932 -0.455877
20.855120 -3.438453 16.781071 0.882366 0.335208 -0.330252
18.752371 6.776778 18.055120 0.939371 0.240368 -0.244551
27.067354 -20.651865 13.684083 0.847934 0.445932 -0.286624
17.484505 -18.534107 -7.534819 -0.959490 -0.281415 -0.013588
25.000620 -26.620857 -1.023699 -0.249326 -0.931950 -0.263260
28.620960 1.930336 41.019711 0.730076 0.272913 0.626504
0.887994 19.893373 15.930784 0.376131 0.773817 -0.509639
26.214270 -13.665927 -18.340002 0.121311 -0.262976 -0.957145
11.576875 -2.418811 3.282537 -0.855624 -0.232073 -0.462655
6.937025 8.808799 7.742846 -0.720062 -0.461218 -0.518449
25.615379 -28.864664 13.316503 -0.406519 -0.843858 0.350208
21.514549 -18.802982 -11.157579 -0.418428 -0.511202 -0.750727
10.073055 2.031046 9.671690 -0.829460 -0.465116 0.309293
15.634590 27.490820 3.438159 -0.564006 0.487385 0.666598
32.942165 -14.759073 28.480476 0.878762 0.287927 -0.380625
18.483305 -18.596209 7.533771 -0.707677 -0.277989 0.649550
17.929741 -16.416677 -9.542493 -0.800159 -0.276532 -0.532237
28.260370 -19.056536 18.966379 0.764527 0.442782 -0.468447
-1.348407 19.849155 9.517899 0.597925 0.775351 -0.203265
29.481470 -21.846663 -5.901808 0.974072 -0.020851 0.225277
7.094260 7.659478 11.966057 -0.720541 -0.651244 0.238124
5.828275 10.183788 14.423880 -0.615151 -0.684503 0.391210
8.974740 18.190035 10.050459 -0.176715 0.978486 0.106475
16.466825 0.470344 18.547359 -0.737278 -0.582380 0.342424
18.840115 -20.251450 -2.220636 -0.957338 -0.217291 -0.190498
27.502026 3.002151 34.858959 0.631709 0.669591 -0.390629
21.557899 -5.188242 -11.093978 -0.929374 -0.009559 -0.369016
28.381136 -4.421784 40.378334 -0.011786 -0.450895 0.892499
18.192690 10.316829 18.768358 0.963228 0.243509 -0.113560
18.514259 -6.991251 -5.638755 -0.912124 -0.190514 -0.362952
14.238300 -0.635370 -7.862012 -0.744834 -0.304847 -0.593541
21.271690 -5.595415 19.450489 -0.790034 -0.495469 0.361049
24.401230 -2.371165 -6.346650 0.918909 0.333148 0.211232
17.833996 6.928319 12.609047 0.989244 0.142712 -0.032084
11.907100 0.355805 -0.177035 -0.928283 -0.185738 -0.322169
24.350691 -27.951115 3.342707 -0.255338 -0.918281 -0.302594
24.409334 -15.866464 0.519005 0.948900 0.196276 0.247113
21.431219 8.938182 42.428459 0.546630 0.767570 0.334710
32.811481 -4.693459 37.040878 0.883842 0.119943 0.452147
29.388090 -9.540144 -12.003621 0.947315 0.301569 0.107936
17.759809 6.098354 0.048001 0.287202 0.775457 -0.562300
18.300421 -17.367540 -3.777651 -0.966821 -0.244479 0.074081
18.609190 -19.901011 1.452265 -0.988948 0.016866 -0.147299
8.272965 35.895142 -0.235065 0.231243 0.614353 0.754386
29.742149 -18.506058 -13.164383 0.887084 -0.201274 -0.415415
25.020334 -20.455772 3.671890 0.937041 0.341850 0.071363
17.324989 -11.998406 -10.865047 -0.873951 0.046997 -0.483737
24.182116 -16.800518 -13.837612 -0.456852 -0.541309 -0.705883
17.567110 8.803846 2.703033 0.837782 0.317484 -0.444212
19.207235 5.676220 2.555985 0.887210 0.457714 -0.057931
17.608065 -8.510051 -0.862424 -0.904999 -0.249129 -0.344835
15.601735 -11.471733 3.147643 -0.739460 -0.487191 -0.464590
17.607185 25.510315 7.646166 -0.174612 0.912095 0.370935
16.122835 14.848848 0.437822 0.801633 -0.250380 -0.542857
16.827209 12.307482 2.410992 0.828421 -0.069648 -0.555759
19.112055 5.160794 -8.648164 -0.351055 0.929584 -0.112398
14.754945 5.652685 0.084053 -0.429303 0.513281 -0.743129
19.191225 -15.273822 3.802640 -0.879053 -0.188104 -0.438044
9.831860 18.294537 12.460340 -0.276156 0.960842 -0.022832
8.404195 18.709646 31.809162 0.370394 0.786902 0.493551
13.533355 7.589577 1.261180 -0.418289 0.015487 -0.908182
16.184790 4.610716 -2.104606 -0.409200 0.802372 -0.434459
17.155430 -11.372858 -8.235545 -0.968170 0.236182 -0.082857
31.070910 -10.161968 37.033825 0.280074 -0.536666 0.795957
29.012995 -13.266021 -9.606827 0.868250 0.211863 0.448616
30.406836 1.646982 37.976730 0.868855 0.494913 -0.012378
7.720755 20.882408 1.712453 -0.350582 0.709701 0.611079
1.734523 23.763893 20.109875 -0.392497 0.881897 0.261160
9.312480 15.438129 43.341270 -0.415158 0.223974 0.881748
30.947350 -25.563881 17.033836 0.882652 -0.469004 0.030990
26.389080 -7.683652 -17.372427 0.481673 0.392178 -0.783701
10.541420 3.334031 4.925045 -0.920937 -0.089569 -0.379279
24.419775 3.217056 30.759197 0.734785 0.581622 -0.349009
24.782310 -11.247605 -17.700064 -0.290298 -0.252159 -0.923116
14.352020 20.393908 11.333254 -0.636191 0.769823 0.051327
31.648081 -19.710056 26.792864 0.089806 -0.762672 0.640521
17.290264 -11.982768 0.626446 -0.896746 -0.309379 -0.316435
23.195120 -11.567869 11.613596 0.921401 0.341092 -0.186216
29.970671 -18.425056 27.107964 -0.619647 -0.559086 0.550873
10.891055 21.084581 19.064470 -0.297146 0.685024 -0.665166
1.385649 21.959177 20.790554 -0.791857 0.135244 0.595543
1.986711 18.092337 20.026768 -0.610405 -0.485522 0.625839
18.275326 -25.412350 4.825119 -0.882961 -0.408734 0.230904
23.136740 3.007092 -16.069597 0.324288 0.449645 -0.832260
19.650225 -9.489495 -12.395159 -0.853340 0.412679 -0.318602
12.790775 23.898924 -7.156679 0.891822 0.132714 -0.432481
12.239825 33.260735 -0.021842 0.427343 0.791348 0.437202
7.466155 11.812714 20.161160 -0.714176 -0.632838 0.299114
17.883205 10.236734 6.052915 0.989319 0.143506 -0.025594
18.497355 6.006316 7.362643 0.968549 0.208300 0.136106
11.966135 7.787698 23.474419 -0.731718 -0.646228 0.216745
1.080566 19.142756 13.851422 0.413174 0.886879 -0.206719
13.867050 24.051826 3.474392 -0.559859 0.536828 0.631168
13.089060 9.061548 36.336906 -0.744489 -0.664333 0.066319
33.644970 -5.858663 34.546707 0.933561 0.244329 -0.262235
1.689781 13.261393 14.161485 -0.481715 -0.750097 0.453105
4.031966 11.932316 7.873616 -0.559269 -0.661856 -0.499165
7.082125 23.407820 -1.025011 -0.209266 0.378927 0.901455
21.725025 -4.248865 4.363859 0.951893 0.202590 0.229907
15.867825 14.595100 21.129999 0.774887 0.592157 0.221135
29.577484 -16.662252 -8.626270 0.952768 0.146731 0.265901
11.520875 30.660856 -6.139706 0.803918 0.219592 0.552717
28.133980 -26.295307 3.504797 0.997169 0.015079 -0.073662
21.735991 6.544038 31.425697 0.713401 0.692975 -0.104135
31.783600 -6.203975 32.324966 0.792390 0.283729 -0.540014
31.418369 -16.417244 24.457510 0.726062 0.450252 -0.519719
11.755755 10.652778 38.447067 -0.791883 -0.607653 -0.060650
26.319265 -14.150396 -5.679221 0.847559 0.230180 0.478186
12.130620 10.209239 1.281938 -0.481776 -0.484131 -0.730417
17.917931 -10.053095 10.224374 -0.667544 -0.344580 0.660037
14.315955 13.991579 29.721193 0.699364 0.711248 0.070825
29.361456 -15.749795 -14.649061 0.844778 -0.124403 -0.520456
18.166275 22.574978 3.477748 0.979787 0.117415 -0.161961
21.334049 -23.797197 -1.090975 -0.555713 -0.814845 -0.164959
10.958380 -1.591054 7.133778 -0.933067 -0.262495 0.245929
22.868935 -2.322380 28.912386 -0.767687 -0.594794 0.238489
26.281900 -22.679073 6.841757 0.880861 0.452014 -0.140599
22.770905 -10.831242 5.107380 0.972951 0.209334 0.097698
11.767685 6.012151 18.703520 -0.731750 -0.595985 0.330672
22.982759 -5.217541 -15.843256 -0.450031 0.507868 -0.734535
-3.646929 22.542328 13.168567 0.742641 0.632505 -0.220048
16.274031 12.319141 43.346291 0.580351 0.658038 0.479769
24.000031 5.383853 34.869843 0.543536 0.798449 -0.258937
20.843695 -11.111264 -14.827932 -0.772372 -0.070704 -0.631224
23.893009 1.552278 42.896179 -0.140166 -0.438184 0.887890
12.497425 -2.661730 9.071213 -0.743929 -0.389908 0.542717
25.618271 -14.549345 16.946922 0.896679 0.321392 -0.304423
18.771166 4.285588 43.215538 -0.398653 -0.571528 0.717238
21.010710 -6.352247 -8.434428 -0.877374 -0.073716 -0.474111
-6.264240 20.504810 17.486443 -0.570320 -0.306596 0.762059
13.387210 9.726048 43.948269 -0.225643 -0.186341 0.956223
18.282116 4.022952 38.415142 -0.706595 -0.705819 0.050432
26.364470 1.338205 42.642776 0.352145 -0.033375 0.935350
19.404144 -1.704428 13.263623 0.957926 0.270963 -0.094639
10.708990 17.447441 36.644932 0.347070 0.936516 -0.049801
18.230555 21.799232 8.425950 0.995835 -0.031891 0.085409
18.532450 17.186544 6.192879 0.992601 -0.085533 0.086177
17.282045 28.677256 3.249650 0.601765 0.695345 0.392905
21.666765 -7.669339 8.510384 0.960213 0.271482 0.065494
-3.419003 24.819763 16.602983 0.715889 0.668981 0.199919
19.242155 9.288564 22.992369 0.889648 0.453384 -0.054486
14.753985 -2.551591 -4.369830 -0.783139 -0.577762 -0.229964
8.184085 15.391167 35.022446 -0.926242 -0.165741 0.338536
11.103085 10.337969 29.994190 -0.738594 -0.657389 0.149392
17.404964 12.573935 20.637419 0.884405 0.461364 0.070507
28.491714 -13.461367 27.267925 -0.887058 -0.328412 0.324458
11.754680 29.434544 -4.830688 0.881714 0.417183 -0.220317
7.301180 15.102265 1.381583 -0.559043 -0.628299 -0.541028
3.333240 22.649210 24.447336 -0.763174 0.574090 0.296625
25.331310 -3.960962 -14.837722 0.593016 0.376017 -0.711999
12.631335 16.691177 -4.979509 0.507029 -0.584047 -0.633886
27.106409 -28.456999 4.161533 0.366845 -0.902538 -0.225500
28.606770 -28.807711 9.142201 0.548828 -0.824713 -0.136512
30.044991 -25.920513 19.066280 0.350988 -0.804547 0.479074
24.268215 -12.608647 18.251760 -0.851817 -0.317863 0.416378
27.339861 -8.815351 29.696743 -0.859038 -0.437218 0.266259
18.689980 -23.845867 1.258666 -0.778925 -0.523206 -0.345733
-0.374632 13.893583 8.529538 -0.421940 -0.792665 -0.440055
29.743006 -20.537704 -11.868203 0.750458 -0.486032 -0.447867
0.281250 18.360519 6.831495 0.370595 0.916266 0.152040
26.305096 -20.708038 -1.064602 0.884078 0.354982 0.303962
30.403980 -15.229611 31.523203 -0.710685 -0.555461 0.431729
23.718241 1.365537 -14.211136 0.903304 0.383175 -0.192920
9.887615 15.864882 -3.075670 -0.547631 -0.713926 -0.436360
3.264886 17.043097 20.796024 -0.707639 -0.602088 0.369780
11.321565 -4.238690 4.183476 -0.924949 -0.157509 -0.345919
8.996780 21.680233 26.766945 0.738545 0.515968 0.433968
10.754830 18.284662 26.824800 0.764434 0.580894 0.279648
5.317489 18.630236 33.014660 -0.277999 0.235453 0.931278
10.045995 6.803396 4.781070 -0.773553 -0.178747 -0.608001
5.449712 19.063139 3.561689 -0.099905 0.909395 0.403758
26.741465 -22.389240 -10.627796 -0.085009 -0.762347 -0.641560
15.277085 23.181435 20.052027 0.717368 0.234923 0.655892
6.151615 16.203810 31.437092 -0.764403 -0.608671 0.212619
22.276020 -12.785207 -15.791767 -0.537541 -0.401529 -0.741501
26.672075 -5.716557 -11.829312 0.893191 0.447041 -0.048627
25.236750 6.833615 41.489815 0.611306 0.628140 0.481399
13.646780 11.158730 0.451830 0.056078 -0.512706 -0.856731
9.575095 24.110723 21.338207 0.146672 0.980093 -0.133807
8.272825 17.068066 40.367439 -0.856848 0.490198 0.159743
22.407545 1.904007 -6.017877 0.846263 0.515726 0.133662
11.328435 19.061260 -9.295294 0.695986 -0.533489 -0.480617
12.852735 2.712161 -0.424801 -0.773216 0.419816 -0.475280
14.919965 12.326870 0.308017 0.594532 -0.325925 -0.735054
16.601215 21.027773 -1.321636 0.891749 -0.043733 -0.450412
12.022075 15.488211 -3.982963 -0.107381 -0.773568 -0.624550
30.951180 -7.456969 38.329903 0.244931 -0.462752 0.851980
16.574505 10.927554 37.851387 0.672098 0.736265 -0.078722
29.328400 -27.108585 8.507742 0.957286 0.128083 -0.259225
1.582588 12.225802 11.341000 -0.554946 -0.831784 0.013060
33.912815 -13.760755 31.340218 0.995784 -0.088946 0.022410
6.244925 22.910858 29.481951 0.053731 0.830556 0.554337
15.420795 30.954487 0.922548 0.695274 0.718402 0.022183
-2.877040 17.058632 17.126968 -0.407725 -0.657407 0.633701
30.146500 -2.949255 40.354729 0.592914 -0.131315 0.794487
19.038561 0.140032 10.674034 0.963950 0.222969 0.145206
13.355595 18.754244 -5.294164 0.813386 -0.247691 -0.526358
23.479734 -1.819413 33.716927 -0.765667 -0.635634 0.098608
16.557964 -17.906740 5.402178 -0.983771 -0.083731 -0.158691
27.313154 -28.573830 15.476828 0.148137 -0.915959 0.372927
11.050780 13.510508 -1.144158 -0.397324 -0.676936 -0.619589
20.152201 4.141846 -1.170511 0.757506 0.652502 0.020645
29.686295 -13.772288 -11.754081 0.994785 0.087456 0.052486
9.725500 10.127618 3.766365 -0.647849 -0.429980 -0.628816
31.558849 -14.800197 32.580776 0.136793 -0.743440 0.654663
13.136565 24.051426 20.218662 -0.014330 0.997131 0.074322
23.143335 -8.220352 -18.400286 -0.500780 0.076449 -0.862192
16.011589 9.202074 1.623995 0.416002 0.090436 -0.904856
21.002344 3.826085 -14.649029 -0.641235 0.326688 -0.694329
13.925055 -1.687614 0.152551 -0.822483 -0.472784 -0.316222
