ply
format ascii 1.0
element vertex 143
property float x
property float y
property float z
property float nx
property float ny
property float nz
end_header
14.450390 28.120411 2.822998 -0.585261 0.528290 0.615126
26.325926 -6.771404 37.763142 0.759060 0.441553 -0.478393
22.207590 -3.410712 29.797350 0.852621 0.351658 -0.386490
31.683655 -35.934753 25.792507 0.943983 0.139572 -0.299026
33.484184 -16.994097 46.743607 0.964142 -0.052186 0.260206
10.092125 -2.126869 10.869063 -0.884774 -0.414365 0.213251
33.362755 -11.630963 46.900677 0.931085 0.339114 -0.134475
18.317511 7.762194 35.585140 0.762016 0.646501 0.036984
8.457105 26.646662 26.323303 0.157432 0.958631 -0.237155
18.216366 27.577780 10.324622 0.864386 0.469320 0.180487
27.135521 -13.891033 51.227951 -0.579560 -0.634973 0.510803
8.587875 12.611198 54.744194 -0.664758 0.111186 0.738738
19.856236 -29.684732 -8.728980 -0.765247 -0.470645 -0.439193
18.085649 1.906005 -14.055268 -0.743547 0.207797 -0.635577
18.095535 -19.187817 -2.949886 -0.996075 -0.088333 -0.005713
10.575890 23.478363 28.760977 0.633599 0.541144 0.552915
16.462576 8.872076 55.678421 0.463222 0.641480 0.611497
10.245055 18.166658 -5.908457 -0.401352 -0.762258 -0.507818
19.965200 -33.926823 -5.494817 -0.565297 -0.756953 -0.327812
23.853621 -30.319935 -10.025730 -0.283929 -0.702005 -0.653126
22.230419 -0.712926 -3.376617 0.878871 0.451026 0.155436
22.118170 4.179794 -20.270208 0.400138 0.758867 -0.513819
17.481485 10.036100 17.402462 0.976954 0.212372 0.021424
15.820255 25.795134 16.924145 -0.451433 0.879372 -0.151370
11.362030 19.746220 14.937320 -0.326679 0.941784 -0.079518
21.869120 0.692946 56.565758 0.171740 0.049540 0.983896
3.732959 20.731146 33.890030 -0.958520 -0.108943 0.263382
15.606960 19.153219 22.037388 0.943717 0.103608 0.314106
28.067551 -38.091091 26.971523 -0.651791 -0.464693 0.599358
25.761786 -8.928468 -9.718996 0.912787 0.271159 0.305439
-1.989116 22.370670 22.944864 -0.282443 0.148740 0.947682
22.556755 -40.477081 11.581676 -0.564280 -0.817157 0.117653
6.538355 14.007154 32.060867 -0.793886 -0.585541 0.163972
23.814430 -1.194754 38.691200 0.768359 0.570735 -0.289630
5.493471 19.462622 15.610041 0.067704 0.972439 -0.223110
33.878929 -23.524881 42.304356 0.977952 -0.173845 0.115703
24.466915 -35.609409 19.365808 -0.841751 -0.234333 0.486357
28.380159 -33.361275 -7.706958 0.406099 -0.829287 -0.383884
11.414155 -11.273916 7.139660 -0.921697 -0.347891 -0.171599
13.530530 39.715954 -2.703406 0.392728 0.771959 0.499845
26.960276 -29.361725 -13.064286 -0.050863 -0.725297 -0.686554
12.025135 16.014765 52.141758 0.327216 0.900796 0.285476
25.651735 -14.947440 30.063192 0.811187 0.352798 -0.466379
20.855120 -8.848102 22.259233 0.885746 0.334499 -0.321814
17.484505 -26.040869 -7.841850 -0.949224 -0.314298 0.013817
24.522100 -36.262493 -0.863274 -0.285348 -0.919984 -0.268713
4.344612 11.143288 9.818040 -0.599141 -0.639541 -0.481681
20.866671 -32.079762 13.633001 -0.712425 -0.292466 0.637899
27.568705 -29.424948 24.883781 0.809282 0.422237 -0.408386
29.481470 -30.510492 -5.387681 0.965188 0.053444 0.256038
7.867585 3.506369 12.356069 -0.808774 -0.587577 0.025263
15.867705 -4.732898 20.718058 -0.726865 -0.520745 0.447763
18.487700 8.449330 25.101171 0.916176 0.364294 -0.167067
13.280430 -2.606081 -8.564855 -0.881954 0.129705 -0.453138
20.023211 -12.597647 20.853382 -0.764666 -0.472939 0.437738
25.158939 -26.647717 1.256200 0.915229 0.274155 0.295286
29.588430 -14.786942 -14.303241 0.941394 0.310795 0.131089
18.433226 -25.246040 -2.548600 -0.979675 -0.189681 0.065256
18.609190 -28.716553 3.978046 -0.961789 0.126036 -0.243056
25.190365 -30.751352 9.609005 0.922326 0.374737 -0.094269
16.934635 -18.079241 -11.652525 -0.943045 0.089094 -0.320513
17.432699 -11.776494 -1.675027 -0.865877 -0.341100 -0.365935
17.607185 29.698799 7.488982 0.055467 0.928921 0.366100
16.819944 10.034968 1.971054 0.741875 0.026162 -0.670027
18.999825 4.471639 -7.460259 0.021522 0.985738 -0.166908
19.200005 -23.078621 6.317600 -0.941649 -0.204984 -0.266981
8.404195 18.441628 39.580936 0.322111 0.755478 0.570524
12.429830 9.379747 1.276084 -0.361737 -0.398698 -0.842726
17.086605 5.340530 -0.972133 -0.233469 0.701421 -0.673424
26.979170 -12.215131 -21.486683 0.631075 0.330852 -0.701627
26.301926 -18.437311 -22.095131 0.035327 -0.388493 -0.920774
13.767440 22.010895 11.716863 -0.638104 0.751024 0.169667
16.445175 -18.521940 4.530035 -0.786342 -0.444162 -0.429402
23.195120 -18.899597 16.354458 0.926013 0.353106 -0.133474
29.970671 -29.363380 37.182850 -0.744106 -0.472093 0.472688
9.485490 21.263136 22.158621 -0.213987 0.809767 -0.546340
2.351519 18.510057 24.869907 -0.650974 -0.503175 0.568373
19.650225 -13.796835 -15.064752 -0.839288 0.412716 -0.353922
17.734184 13.206311 10.028103 0.993624 0.107572 0.033753
18.846251 2.171443 9.129886 0.964918 0.210617 0.156763
0.870614 21.318178 18.531433 0.394456 0.807209 -0.439110
1.964208 11.543724 14.820414 -0.531731 -0.815794 0.227471
27.973326 -36.399975 4.185548 0.983655 -0.175208 -0.041534
31.783600 -13.997670 42.742840 0.817172 0.298522 -0.493066
31.354290 -20.768064 38.344040 0.771582 0.371154 -0.516629
12.400455 6.477435 48.324619 -0.795127 -0.606442 0.000605
26.319265 -20.527601 -5.867945 0.838701 0.242913 0.487415
17.917931 -16.791468 14.396993 -0.684395 -0.360103 0.633979
29.908825 -25.753153 -15.402754 0.813988 -0.312839 -0.489444
18.846735 21.149504 4.461306 0.998338 0.010986 -0.056571
19.843216 -31.950647 -0.012701 -0.763989 -0.619645 -0.179891
11.573220 4.886291 26.841715 -0.734123 -0.619097 0.278894
23.434410 -5.577676 -19.020136 -0.491293 0.142584 -0.859244
22.513895 1.599312 42.027393 0.628682 0.758812 -0.170183
11.896780 -6.589472 11.552954 -0.744204 -0.369835 0.556222
24.139635 -17.298519 23.594374 0.879884 0.359084 -0.311226
18.771166 -1.450292 55.851627 -0.403131 -0.587230 0.701887
19.272280 -11.458294 -7.437314 -0.955385 0.010638 -0.295172
12.533535 4.193344 55.891121 -0.536827 -0.522622 0.662331
18.282116 -1.311678 49.637379 -0.695070 -0.717793 0.040631
25.271435 -5.186976 55.959038 0.127041 -0.226989 0.965576
19.109674 -5.556244 15.926578 0.968417 0.247812 -0.027512
10.828100 16.238691 45.761723 0.147583 0.988905 0.016900
17.091465 34.974056 1.650313 0.713756 0.653730 0.251374
21.109221 -9.818979 9.784613 0.955548 0.242921 0.167083
15.588830 -5.298886 -8.874886 -0.695278 -0.516438 -0.499880
8.184085 13.806275 44.090054 -0.909072 0.075064 0.409821
11.103085 7.739940 38.058640 -0.744794 -0.649699 0.152230
16.233995 13.901729 25.418722 0.877259 0.462497 0.128503
27.893160 -18.376806 39.686115 -0.862108 -0.424620 0.276527
7.301180 16.794788 0.385832 -0.554897 -0.626464 -0.547387
1.171802 25.677034 23.666758 -0.547716 0.756690 0.356969
24.167610 -0.953099 -17.477800 0.830942 0.425649 -0.358271
25.849476 -39.500664 5.845019 0.042519 -0.957494 -0.285302
28.606770 -41.064259 14.865630 0.390329 -0.913414 -0.115404
31.330894 -35.984264 30.610237 0.314128 -0.800214 0.510863
22.144350 -19.330103 20.189295 -0.821773 -0.296704 0.486474
18.304569 -36.378349 8.883573 -0.918843 -0.387507 0.074598
11.854425 16.488760 33.411697 0.744497 0.627170 0.228870
4.488539 18.179970 40.980366 -0.804712 -0.033325 0.592729
10.537315 2.850608 5.707570 -0.849624 -0.146717 -0.506569
6.733555 22.398989 1.915997 -0.186275 0.878506 0.439919
16.613525 26.384907 21.606430 0.517832 0.732943 0.441186
26.672075 -8.948599 -14.706445 0.897750 0.440120 0.018411
28.063354 -0.326851 52.156364 0.746533 0.557129 0.363724
14.424900 12.416569 -0.800918 0.279872 -0.579168 -0.765661
8.272825 15.451743 50.870850 -0.841985 0.531410 0.093082
11.847485 21.479200 -11.021498 0.657874 -0.535487 -0.529581
12.089010 -1.573634 -1.167145 -0.907850 0.063868 -0.414402
15.578675 26.877283 -6.915211 0.831212 0.041568 -0.554399
31.194494 -18.697069 49.664539 0.345413 -0.508431 0.788789
16.574505 7.720682 48.214031 0.712403 0.699645 -0.054587
30.398775 -39.667912 18.441765 0.964050 -0.245323 -0.102104
5.537764 24.348186 35.982044 -0.122074 0.837218 0.533071
29.561970 -12.400380 53.236671 0.478219 -0.217116 0.850980
22.833984 -7.777123 39.791214 -0.756660 -0.625258 0.191099
15.843210 -22.563318 10.295130 -0.934839 -0.338505 0.107191
26.389040 -41.587395 22.210842 -0.241439 -0.865216 0.439441
19.482035 3.582263 2.116425 0.836901 0.535164 -0.114876
30.606791 -24.007204 45.809170 -0.353920 -0.691804 0.629403
13.136565 26.544992 23.979111 -0.060681 0.997855 -0.024572
23.019205 -13.093838 -22.674948 -0.507820 -0.021491 -0.861195
14.901715 -8.263005 -0.099711 -0.766523 -0.503347 -0.398855
