ply
format ascii 1.0
element vertex 133
property float x
property float y
property float z
property float nx
property float ny
property float nz
end_header
51.651852 -22.177986 59.166939 0.759060 0.441553 -0.478393
43.415180 -15.539637 46.388458 0.852621 0.351658 -0.386490
62.367310 -64.337280 46.480900 0.943983 0.139572 -0.299026
65.968369 -39.465996 74.798630 0.964142 -0.052186 0.260206
19.184250 -9.977916 17.300829 -0.884774 -0.414365 0.213251
65.725510 -31.323517 74.016418 0.931085 0.339114 -0.134475
35.635021 0.383315 53.079769 0.762016 0.646501 0.036984
15.914210 30.923820 35.369461 0.157432 0.958631 -0.237155
35.432732 35.390034 10.813175 0.864386 0.469320 0.180487
53.271042 -35.591675 81.040848 -0.579560 -0.634973 0.510803
16.175751 4.122933 81.350891 -0.664758 0.111186 0.738738
38.712471 -48.237907 -7.313726 -0.765247 -0.470645 -0.439193
35.171299 0.914910 -21.447254 -0.743547 0.207797 -0.635577
35.191071 -33.343384 -0.506905 -0.996075 -0.088333 -0.005713
20.151779 25.631615 39.687496 0.633599 0.541144 0.552915
31.925150 -1.752726 83.486687 0.463222 0.641480 0.611497
38.930401 -55.318085 -1.577463 -0.565297 -0.756953 -0.327812
46.707241 -48.958839 -9.168734 -0.283929 -0.702005 -0.653126
43.460838 -5.109873 -4.676187 0.878871 0.451026 0.155436
43.236340 5.563531 -31.350739 0.400138 0.758867 -0.513819
33.962971 7.311684 24.939722 0.976954 0.212372 0.021424
30.640511 31.416569 21.209135 -0.451433 0.879372 -0.151370
21.724060 22.577614 19.333771 -0.326679 0.941784 -0.079518
42.738239 -14.385186 86.396751 0.171740 0.049540 0.983896
6.465917 20.468414 48.026470 -0.958520 -0.108943 0.263382
30.213921 20.321602 30.265867 0.943717 0.103608 0.314106
55.135101 -67.847702 48.688229 -0.651791 -0.464693 0.599358
50.523571 -16.420727 -12.775895 0.912787 0.271159 0.305439
44.113510 -68.552094 25.691515 -0.564280 -0.817157 0.117653
12.076710 10.570739 46.519936 -0.793886 -0.585541 0.163972
46.628860 -13.857004 59.518898 0.768359 0.570735 -0.289630
9.986942 22.017328 20.412888 0.067704 0.972439 -0.223110
66.757858 -48.572102 69.278015 0.977952 -0.173845 0.115703
47.933830 -62.617382 36.625870 -0.841751 -0.234333 0.486357
55.760319 -54.034931 -5.056066 0.406099 -0.829287 -0.383884
21.828310 -23.205917 13.360224 -0.921697 -0.347891 -0.171599
52.920551 -46.919933 -13.981429 -0.050863 -0.725297 -0.686554
23.050270 9.805026 76.736977 0.327216 0.900796 0.285476
50.303471 -33.170059 48.991028 0.811187 0.352798 -0.466379
40.710239 -22.389355 35.937504 0.885746 0.334499 -0.321814
33.969009 -42.854328 -6.655980 -0.949224 -0.314298 0.013817
48.044201 -59.759396 5.925011 -0.285348 -0.919984 -0.268713
7.689224 10.443479 13.171621 -0.599141 -0.639541 -0.481681
40.733341 -56.146908 27.217854 -0.712425 -0.292466 0.637899
54.137409 -54.244476 43.856213 0.809282 0.422237 -0.408386
57.962940 -50.132648 -2.064938 0.965188 0.053444 0.256038
14.735170 -1.677170 18.493744 -0.808774 -0.587577 0.025263
30.735411 -15.825009 32.805199 -0.726865 -0.520745 0.447763
35.975399 3.427326 36.973328 0.916176 0.364294 -0.167067
25.560860 -7.006446 -12.221470 -0.881954 0.129705 -0.453138
39.046421 -27.835171 34.509457 -0.764666 -0.472939 0.437738
49.317879 -45.512012 7.323299 0.915229 0.274155 0.295286
58.176861 -24.474739 -18.645510 0.941394 0.310795 0.131089
35.866451 -42.651402 1.258526 -0.979675 -0.189681 0.065256
36.218380 -49.182972 11.864937 -0.961789 0.126036 -0.243056
49.380730 -53.356186 20.833023 0.922326 0.374737 -0.094269
32.869270 -29.996477 -13.979220 -0.943045 0.089094 -0.320513
33.865398 -22.292765 0.024056 -0.865877 -0.341100 -0.365935
34.214371 39.162186 6.088198 0.055467 0.928921 0.366100
32.639889 10.249275 1.425422 0.741875 0.026162 -0.670027
36.999649 3.568258 -11.886414 0.021522 0.985738 -0.166908
37.400009 -41.037464 14.356078 -0.941649 -0.204984 -0.266981
15.808390 15.895641 57.134422 0.322111 0.755478 0.570524
23.859659 9.383217 0.491226 -0.361737 -0.398698 -0.842726
33.173210 3.656449 -2.165253 -0.233469 0.701421 -0.673424
52.958340 -19.187515 -30.081570 0.631075 0.330852 -0.701627
51.603851 -28.553040 -29.823551 0.035327 -0.388493 -0.920774
26.534880 26.641970 13.995043 -0.638104 0.751024 0.169667
31.890350 -33.753460 10.764232 -0.786342 -0.444162 -0.429402
45.390240 -36.581207 28.854326 0.926013 0.353106 -0.133474
58.941341 -56.493340 62.585915 -0.744106 -0.472093 0.472688
17.970980 23.513620 30.048716 -0.213987 0.809767 -0.546340
3.703038 18.802015 34.704594 -0.650974 -0.503175 0.568373
38.300449 -22.820955 -19.994497 -0.839288 0.412716 -0.353922
34.468369 13.547123 13.098759 0.993624 0.107572 0.033753
36.692501 -3.096833 13.831928 0.964918 0.210617 0.156763
2.928415 10.100835 20.718010 -0.531731 -0.815794 0.227471
54.946651 -60.930573 13.644638 0.983655 -0.175208 -0.041534
62.567200 -34.137959 68.131477 0.817172 0.298522 -0.493066
61.708580 -43.616886 62.718140 0.771582 0.371154 -0.516629
23.800911 -4.000981 72.737022 -0.795127 -0.606442 0.000605
51.638531 -34.829140 -4.698272 0.838701 0.242913 0.487415
34.835861 -32.995968 25.469976 -0.684395 -0.360103 0.633979
58.817650 -40.975735 -18.232155 0.813988 -0.312839 -0.489444
36.693470 26.711382 3.103036 0.998338 0.010986 -0.056571
38.686432 -53.350979 6.399820 -0.763989 -0.619645 -0.179891
22.146441 -2.333600 40.304256 -0.734123 -0.619097 0.278894
45.868820 -9.543111 -27.587299 -0.491293 0.142584 -0.859244
44.027790 -10.234844 64.070419 0.628682 0.758812 -0.170183
22.793560 -16.908340 19.192966 -0.744204 -0.369835 0.556222
47.279270 -35.520500 39.581608 0.879884 0.359084 -0.311226
36.542332 -17.515049 85.716782 -0.403131 -0.587230 0.701887
37.544559 -20.710306 -8.817177 -0.955385 0.010638 -0.295172
24.067070 -8.922740 84.701988 -0.536827 -0.522622 0.662331
35.564232 -16.120161 76.221054 -0.695070 -0.717793 0.040631
49.542870 -23.229506 86.592209 0.127041 -0.226989 0.965576
37.219349 -16.166969 25.660728 0.968417 0.247812 -0.027512
20.656200 11.361493 66.972366 0.147583 0.988905 0.016900
41.218441 -21.492670 17.113497 0.955548 0.242921 0.167083
30.177660 -11.050716 -12.180982 -0.695278 -0.516438 -0.499880
15.368170 7.973364 64.888382 -0.909072 0.075064 0.409821
21.206169 -0.121739 56.853153 -0.744794 -0.649699 0.152230
31.467991 11.675261 36.418663 0.877259 0.462497 0.128503
54.786320 -40.228699 64.307732 -0.862108 -0.424620 0.276527
1.343603 29.952301 31.506084 -0.547716 0.756690 0.356969
47.335220 -2.789911 -26.117947 0.830942 0.425649 -0.358271
50.698952 -65.971527 16.763964 0.042519 -0.957494 -0.285302
56.213539 -70.072357 30.807478 0.390329 -0.913414 -0.115404
61.661789 -65.330391 53.831635 0.314128 -0.800214 0.510863
43.288700 -37.967663 34.779884 -0.821773 -0.296704 0.486474
35.609138 -61.792484 20.799412 -0.918843 -0.387507 0.074598
22.708851 14.094934 48.105663 0.744497 0.627170 0.228870
7.977079 15.230365 59.316727 -0.804712 -0.033325 0.592729
20.074631 -1.410045 8.487608 -0.849624 -0.146717 -0.506569
32.227051 31.423407 28.231707 0.517832 0.732943 0.441186
52.344151 -15.501412 -20.371981 0.897750 0.440120 0.018411
55.126709 -15.099278 79.871925 0.746533 0.557129 0.363724
27.849800 14.406377 -3.252172 0.279872 -0.579168 -0.765661
15.545650 9.189164 74.907593 -0.841985 0.531410 0.093082
23.178020 -6.842280 -1.145431 -0.907850 0.063868 -0.414402
61.388988 -42.617374 79.573952 0.345413 -0.508431 0.788789
32.149010 -2.085445 72.331696 0.712403 0.699645 -0.054587
59.797550 -68.625763 35.990852 0.964050 -0.245323 -0.102104
10.075529 25.581619 50.525341 -0.122074 0.837218 0.533071
58.123940 -33.702820 83.817818 0.478219 -0.217116 0.850980
44.667969 -24.096811 62.448895 -0.756660 -0.625258 0.191099
30.686420 -41.009865 20.318920 -0.934839 -0.338505 0.107191
51.778080 -72.268608 42.099823 -0.241439 -0.865216 0.439441
37.964069 0.388887 2.876027 0.836901 0.535164 -0.114876
60.213581 -49.974655 74.710556 -0.353920 -0.691804 0.629403
25.273130 31.215406 31.816729 -0.060681 0.997855 -0.024572
45.038410 -20.300161 -31.724884 -0.507820 -0.021491 -0.861195
28.803431 -17.238934 1.755301 -0.766523 -0.503347 -0.398855
