ply
format ascii 1.0
element vertex 243
property float x
property float y
property float z
property float nx
property float ny
property float nz
end_header
31.365934 -47.583256 -39.401955 0.796167 0.568636 0.206812
20.614605 -47.387604 -23.666449 0.682568 0.567036 -0.461053
28.492464 -46.075161 -30.900118 -0.267619 0.958916 0.094129
22.508675 -51.991062 -23.646959 -0.203607 -0.976009 -0.077136
27.785540 -38.497795 -66.943115 -0.788712 0.257293 0.558332
29.847734 -46.817501 -49.893730 0.861981 0.288129 0.417099
29.151279 -46.721230 -36.814575 -0.409025 0.842627 -0.350254
28.051205 -44.503174 -25.809822 0.348757 -0.928962 0.124091
25.702465 -46.402374 -26.178808 -0.542699 0.166087 -0.823343
24.918135 -41.656860 -23.741602 0.746378 -0.652574 -0.130638
34.852489 -48.939804 -39.502190 0.441712 -0.891443 0.101091
31.441990 -41.601234 -62.006870 0.680575 -0.698592 -0.220878
27.471115 -49.497105 -29.017696 0.815455 -0.514769 -0.264661
37.280354 -44.285374 -41.417843 -0.230388 0.916372 -0.327390
29.227800 -48.522785 -32.530804 -0.039831 -0.997419 -0.059734
30.412266 -41.979977 -62.963360 -0.232008 -0.914032 -0.332744
27.839371 -46.563236 -33.293709 -0.787489 0.585685 -0.191922
28.224094 -47.739506 -50.523403 -0.442502 -0.824680 -0.352270
27.265850 -47.184635 -49.478161 -0.910196 -0.383815 -0.155659
31.239700 -46.489037 -52.326679 -0.441979 0.841863 -0.309713
34.070004 -45.689907 -34.820259 -0.845882 -0.178134 -0.502745
28.871941 -46.175743 -27.067785 0.218767 -0.875699 -0.430457
22.035950 -41.433998 -23.295681 -0.776969 0.629535 -0.002458
29.138315 -45.707584 -50.934837 0.169487 0.984954 0.033763
37.079529 -44.415867 -46.851067 -0.979814 0.105785 0.169632
25.961374 -48.590279 -25.420681 -0.018447 0.912284 0.409143
35.450191 -43.980495 -35.521614 0.007572 -0.055945 -0.998405
35.077221 -43.570190 -34.460220 -0.685477 0.720885 0.102209
24.990850 -50.706482 -23.243248 0.638603 -0.171603 0.750159
31.062935 -49.766815 -47.692192 0.328522 -0.556998 -0.762776
29.573215 -45.891735 -35.598339 -0.157698 0.978048 -0.136209
20.901566 -51.289761 -22.106733 -0.315404 -0.790132 0.525559
24.949736 -48.773071 -29.206516 -0.656949 0.618271 -0.431462
30.391850 -39.957047 -62.449188 -0.081334 0.900164 0.427890
26.209185 -49.255585 -29.655619 -0.004532 0.937291 -0.348519
28.834789 -45.870949 -26.005388 0.331130 -0.433034 0.838352
32.688236 -47.003517 -54.756374 0.558015 -0.773787 -0.299788
29.928780 -48.714157 -36.621735 0.329284 -0.929345 0.167005
34.064690 -47.261063 -39.007496 -0.222279 0.965651 -0.134577
28.792650 -43.465839 -24.564051 -0.349942 -0.160583 0.922905
31.491051 -49.001354 -40.128868 0.694471 -0.600473 0.396411
24.223330 -49.182507 -25.529619 -0.519131 0.826929 -0.216083
28.073629 -48.100193 -47.442127 -0.848530 -0.409184 0.335507
22.626980 -43.274979 -22.091669 0.570987 0.005764 0.820939
33.808723 -44.598438 -26.265390 0.398286 -0.916809 0.028793
34.993835 -47.590237 -32.052883 -0.025952 -0.977547 -0.209114
24.408766 -51.861073 -23.718756 0.343628 -0.895060 0.284231
34.797085 -47.729118 -38.197697 0.741996 0.340634 0.577417
37.677139 -44.623817 -48.182484 -0.316212 -0.412448 -0.854340
29.449606 -47.025063 -28.698996 0.768453 -0.445990 -0.458883
26.757074 -47.783741 -27.668224 -0.680379 0.718436 -0.144686
37.966068 -44.252598 -44.219925 -0.908918 0.396355 0.129502
38.457100 -45.374805 -43.972549 -0.277619 -0.953737 0.115386
32.681160 -46.117138 -36.936489 0.524036 0.808187 0.268736
29.035206 -51.381905 -44.328224 0.474937 0.600515 -0.643287
30.769520 -51.517677 -35.086132 0.410124 -0.893405 0.183374
22.031010 -48.799477 -20.892694 0.629573 0.093718 0.771268
27.807375 -48.026405 -33.440342 -0.852227 -0.476802 -0.215334
28.414690 -40.220692 -66.617889 -0.678124 -0.682219 0.273359
17.748590 -49.596436 -22.694563 -0.791275 -0.547492 0.272279
25.719070 -45.265575 -24.184755 0.592500 -0.242123 0.768323
22.772881 -40.934914 -24.313072 -0.680139 0.556607 -0.477073
29.747545 -50.194561 -41.498142 0.696630 0.627291 -0.348156
25.526770 -47.765293 -25.370832 0.322545 -0.901682 -0.287982
29.330465 -50.700191 -34.300255 -0.925920 -0.198923 -0.321094
25.503531 -45.450413 -25.295828 -0.090248 -0.671323 -0.735650
29.171400 -49.875946 -41.352612 -0.451958 0.892036 -0.002324
30.826765 -45.285549 -55.400669 -0.536118 0.728578 0.426324
31.269674 -48.700127 -45.329201 0.109063 0.896515 0.429378
32.329964 -39.872585 -66.677429 0.539009 -0.143125 -0.830051
35.472027 -44.062321 -33.939312 -0.134917 -0.056688 0.989234
29.321720 -39.074535 -65.891273 -0.239247 0.585675 0.774432
30.118931 -49.263336 -39.819153 -0.418238 -0.896932 0.143493
29.267445 -45.101997 -58.288052 -0.813594 0.433009 0.388031
23.963314 -49.642830 -22.965166 0.647504 0.296152 0.702163
30.133129 -51.923244 -37.545616 -0.439484 -0.894634 0.080527
32.048695 -47.468941 -30.403660 -0.183344 -0.970616 -0.155851
20.890690 -49.581921 -20.935589 0.087075 -0.288004 0.953662
29.866760 -46.213043 -55.867378 -0.872833 -0.207072 0.441909
31.054255 -50.511959 -42.476234 -0.225253 -0.900507 0.371953
31.286640 -45.041771 -25.868799 0.152505 -0.784953 0.600493
28.424459 -50.577194 -42.306839 -0.859420 0.449904 -0.242864
20.246136 -43.941051 -22.552650 -0.899348 0.430706 -0.075274
33.411518 -46.015736 -54.011745 0.930273 0.242751 -0.275073
38.939655 -45.730286 -46.891609 0.516233 -0.826989 -0.222693
35.635986 -45.009521 -34.380444 0.888761 -0.392972 0.235961
31.072430 -45.727200 -58.336227 0.999214 0.002831 0.039532
31.334801 -48.319935 -51.972652 -0.076512 -0.978469 -0.191688
27.703770 -46.179829 -48.277855 -0.639351 0.679249 0.360349
20.014530 -45.976803 -20.424772 -0.068834 0.268136 0.960919
19.900431 -50.874905 -23.226431 -0.356943 -0.850093 -0.387212
29.315029 -46.414921 -57.907238 -0.851968 -0.523392 -0.014498
28.848415 -48.288239 -48.697212 -0.167042 -0.889099 -0.426146
28.036520 -42.923252 -25.802073 -0.305812 0.929448 -0.206412
32.548241 -48.138313 -51.935211 0.351491 -0.935069 0.045826
30.152685 -50.447071 -36.624626 -0.205177 0.976604 -0.064393
30.437346 -50.402870 -32.889137 0.850893 0.135592 0.507539
31.050110 -50.270485 -34.387295 0.967919 0.201257 0.150429
29.333935 -43.688091 -26.023293 0.447348 -0.191715 -0.873570
30.681696 -45.537975 -29.710758 -0.187862 0.965194 -0.181959
24.510555 -50.294262 -26.731165 -0.808666 -0.091183 -0.581158
31.150915 -40.116497 -65.160515 -0.867321 -0.319621 0.381572
30.471270 -44.230663 -26.052561 -0.214431 0.505006 0.836055
28.436214 -46.479939 -51.791447 -0.647737 0.338910 -0.682332
31.071400 -48.732250 -43.832451 -0.366188 0.830278 -0.420173
25.811970 -46.959072 -24.515635 0.568105 -0.047049 0.821610
34.409389 -46.773701 -41.586189 -0.469588 -0.145205 -0.870863
30.261570 -49.794819 -43.295475 -0.969949 -0.207631 -0.126841
22.883945 -51.338467 -22.170954 0.234903 -0.669420 0.704768
24.251804 -51.605026 -25.579432 -0.197623 -0.862225 -0.466384
31.737829 -41.657642 -60.103294 0.782135 0.267268 0.562878
31.122795 -50.803719 -37.391712 0.769523 0.611749 -0.183297
37.627441 -45.343643 -41.837070 -0.515340 -0.327077 -0.792115
30.439369 -45.013828 -60.669434 0.193227 -0.555767 -0.808571
19.232149 -46.641171 -24.211281 -0.244171 0.939243 -0.241252
21.470980 -42.955906 -22.075359 -0.308747 0.507998 0.804123
17.865549 -47.854694 -22.345175 -0.858312 0.468566 0.209157
38.273254 -44.759510 -40.245228 0.415189 0.233108 0.879363
31.926531 -40.963818 -61.170818 0.963787 0.238346 0.119606
23.942255 -48.384495 -22.493774 0.842823 -0.087226 0.531075
32.616055 -41.006561 -64.476929 0.595731 -0.799096 0.080932
31.841379 -47.294762 -38.004070 -0.543166 -0.598072 -0.589305
33.624077 -47.146038 -30.106922 0.420379 -0.520056 0.743521
27.029976 -47.389835 -31.249905 -0.994698 0.058934 -0.084279
27.379120 -48.481243 -30.125404 -0.763901 -0.586015 -0.270261
30.969755 -45.921955 -35.627159 0.580855 0.532992 0.615246
30.706945 -46.408085 -34.808697 0.879010 0.374510 0.295100
29.909439 -48.161343 -32.123055 0.761070 -0.645074 0.068212
19.657434 -46.902225 -22.137280 -0.808874 0.566664 -0.156892
34.797054 -46.038170 -40.166039 0.090004 0.381503 0.919976
31.054125 -45.732620 -59.403694 0.745357 -0.573851 -0.339322
20.307325 -48.781586 -24.633282 0.487828 -0.083329 -0.868953
29.008520 -46.017273 -28.124418 -0.422524 0.905973 -0.026193
21.745190 -50.874275 -24.590641 -0.410627 -0.345615 -0.843763
28.216311 -50.958878 -31.474636 -0.014823 -0.991364 0.130301
33.248505 -44.407261 -26.725479 -0.029477 -0.725312 -0.687788
28.452311 -45.073032 -26.062117 0.053825 0.477275 0.877104
30.825541 -45.078461 -57.575138 0.353137 0.920945 0.164788
21.702595 -47.349915 -22.419254 -0.116948 0.076102 -0.990218
30.659605 -43.145676 -58.985081 0.340118 0.412800 0.844936
38.974365 -45.463192 -41.273956 0.704008 -0.705898 0.077978
31.184879 -47.706356 -52.780327 -0.404934 -0.558777 -0.723738
32.199993 -48.326595 -41.462288 0.941180 0.333598 0.053772
29.894075 -50.266468 -46.717648 -0.571843 -0.805969 -0.152999
35.254696 -46.366653 -34.282887 0.620575 -0.589687 -0.516871
23.740601 -46.803551 -23.663742 0.352151 -0.916386 -0.190334
34.770721 -45.209648 -40.814808 -0.699000 0.698601 0.152828
29.656055 -50.795792 -37.181709 -0.945396 0.297836 0.132360
33.317230 -46.773876 -51.696491 0.927324 -0.006169 0.374208
29.608480 -51.530399 -42.601257 0.825161 -0.543837 -0.152807
22.028234 -49.677013 -24.008186 -0.006520 0.696083 -0.717931
33.938725 -46.413486 -32.187992 -0.788699 0.299806 -0.536721
30.294905 -45.776333 -28.305540 0.376808 0.713543 0.590654
29.943430 -47.595589 -29.767681 0.976421 0.095365 0.193670
29.372995 -47.893082 -50.273659 0.403348 -0.859870 0.312945
29.869595 -47.136726 -48.407784 0.932011 0.261868 -0.250560
28.536304 -47.433998 -36.700584 -0.926530 0.196483 -0.320837
27.432995 -46.840916 -29.663219 -0.752528 0.648961 0.112031
35.886543 -44.831844 -41.777809 -0.259604 0.453352 -0.852689
20.932421 -44.462734 -23.880474 -0.236954 -0.343003 -0.908957
28.881725 -49.047283 -27.381763 0.827955 -0.514917 0.222151
29.518604 -48.152519 -46.202923 -0.551746 0.274040 0.787705
36.015251 -44.474167 -40.286549 -0.314833 0.858698 0.404373
30.494249 -46.649673 -28.567741 0.622198 -0.622380 0.474881
19.391325 -47.575981 -25.844398 0.445973 0.369424 -0.815251
27.043116 -50.935497 -26.420998 0.524208 -0.851434 -0.016319
33.692905 -43.819500 -25.318918 0.263439 0.148419 0.953190
30.989790 -46.079922 -37.420811 -0.336399 0.695502 -0.634911
31.661116 -51.081020 -45.102234 0.256305 -0.932878 -0.253072
34.512959 -48.791180 -40.253269 -0.019728 -0.800882 -0.598497
28.733601 -48.543392 -36.716839 -0.763335 -0.626595 -0.157161
22.714270 -44.265354 -23.212074 0.760262 -0.624281 -0.179653
34.892616 -46.324944 -31.090082 0.413288 0.758478 0.503890
29.661280 -42.738583 -60.913296 -0.861025 -0.231615 -0.452758
23.828060 -42.409092 -24.626320 0.378940 -0.479837 -0.791303
28.320585 -49.287712 -28.994165 0.313552 -0.900361 -0.301722
37.767857 -45.723576 -46.013802 -0.579946 -0.812524 -0.058882
23.259415 -47.430004 -24.383902 -0.716395 0.226992 -0.659737
32.495670 -45.651226 -52.487576 -0.077274 0.948635 0.306789
32.337490 -40.722748 -65.684715 0.018958 -0.888551 -0.458387
30.894335 -51.541908 -37.521641 0.793631 -0.599412 -0.104187
24.830460 -46.594704 -24.295578 -0.116661 0.877423 0.465316
29.045910 -45.040848 -27.594709 -0.130845 0.176052 -0.975646
31.524084 -47.256466 -40.838966 0.460267 0.880225 -0.115582
28.716921 -39.634178 -67.836975 0.192766 -0.512069 -0.837034
24.297140 -41.277458 -22.656513 0.357436 -0.232680 0.904488
27.628250 -48.756500 -25.935755 0.482295 0.308583 0.819859
29.917990 -40.234234 -63.163647 -0.946290 0.305181 -0.106772
30.497990 -47.075188 -37.071484 -0.102311 0.739556 -0.665274
21.965765 -48.267437 -22.283867 0.096007 0.821229 -0.562464
38.437515 -43.581604 -46.115128 -0.141487 0.780080 0.609473
30.647055 -46.234539 -30.721861 -0.607537 0.240620 -0.756968
26.361385 -50.413658 -28.269932 0.098811 -0.981822 -0.162058
34.974495 -43.811653 -28.803465 0.196585 -0.971005 -0.136026
28.047180 -49.042732 -31.384714 -0.052935 0.984797 -0.165448
19.362715 -46.998318 -20.714447 -0.850450 0.147415 0.504978
29.286940 -46.825020 -26.412148 0.397647 0.371670 0.838891
29.381214 -46.527004 -47.661770 0.443501 0.812322 0.378734
30.143080 -41.074242 -59.722977 -0.334014 0.699524 0.631744
32.211987 -43.524899 -26.561958 -0.396610 0.900052 -0.180571
21.757925 -46.935856 -21.395906 0.737594 0.405737 0.539752
27.226625 -50.030807 -25.446341 0.756454 -0.292308 0.585092
28.644609 -52.414539 -44.758026 -0.396121 -0.910058 -0.121995
32.141720 -49.307049 -45.181408 0.782203 0.622701 -0.020038
29.718340 -48.366310 -40.866508 -0.957078 0.078730 -0.278933
26.633696 -44.193142 -26.652584 -0.283248 0.067522 -0.956667
30.164524 -40.959530 -64.252289 -0.813478 -0.118878 -0.569316
33.398594 -48.295734 -39.141174 -0.877427 -0.401349 -0.262756
22.096525 -42.832157 -24.470541 -0.530420 0.157801 -0.832919
26.099529 -50.436722 -29.413168 -0.547361 -0.792683 -0.268422
35.458714 -47.101158 -31.490494 0.898836 -0.304125 0.315597
32.276127 -49.848679 -46.375580 0.935010 -0.112840 -0.336189
35.742802 -46.468658 -41.168568 0.679982 -0.660083 -0.319241
29.989010 -47.153648 -39.764172 -0.451268 0.848518 -0.276360
18.915594 -48.352947 -21.207911 -0.664745 -0.074351 0.743362
25.722660 -48.649654 -27.907736 -0.554161 0.822999 -0.124810
33.551659 -48.274700 -37.152901 0.105963 -0.748062 0.655115
29.040400 -51.427040 -41.949852 -0.393415 -0.910314 0.128658
30.558174 -50.992115 -44.514648 -0.816654 -0.544524 0.191233
23.673885 -49.144226 -24.089628 -0.131712 0.769235 -0.625244
34.478233 -44.731777 -34.070160 -0.561358 0.572988 0.597128
31.315315 -46.885719 -54.054569 -0.873051 -0.486324 0.035654
18.589375 -49.608292 -25.476055 -0.625259 -0.272945 -0.731130
25.968855 -44.121483 -24.998127 -0.430518 0.853794 0.292728
28.335211 -50.350224 -33.396805 -0.760665 -0.081640 -0.643991
29.381735 -45.290138 -60.002094 -0.619144 -0.568513 -0.541714
24.393431 -45.067558 -23.733507 0.041832 0.730542 0.681585
33.712372 -46.027447 -31.317223 0.101527 0.974780 -0.198737
28.969000 -46.425098 -29.393002 0.289828 0.950449 0.112453
31.959764 -46.829945 -50.798897 0.373582 0.377827 0.847162
30.071980 -49.737389 -34.258472 -0.024795 0.965052 -0.260882
23.030519 -47.389240 -21.960688 0.799674 -0.495719 0.338799
30.462746 -46.955341 -57.988506 0.182456 -0.935868 -0.301431
20.863035 -47.005241 -22.277935 0.460513 0.301642 -0.834829
39.287216 -44.638298 -44.953648 0.991431 -0.072508 0.108664
27.871435 -44.746716 -26.704226 -0.410963 0.911622 -0.007405
32.145184 -50.729317 -43.445400 0.732708 -0.645991 0.214091
24.201395 -45.257023 -24.850489 -0.622247 0.256386 -0.739645
29.038370 -50.943722 -39.301964 -0.964939 -0.140952 0.221418
30.770741 -43.594604 -24.096371 0.098683 -0.873628 0.476483
30.867785 -47.568916 -36.468159 0.921644 -0.332333 0.200317
27.248711 -47.700733 -26.636976 -0.383964 0.816459 0.431238
26.572845 -49.840199 -31.007484 -0.674127 0.385059 -0.630303
