ply
format ascii 1.0
element vertex 376
property float x
property float y
property float z
property float nx
property float ny
property float nz
end_header
40.241413 -27.527569 -46.678448 0.309760 -0.940094 0.142381
34.008850 -27.046791 -86.216728 -0.642605 0.712240 -0.282441
31.993700 -49.194157 -77.593094 0.873406 -0.129626 0.469425
28.498135 -29.347368 -29.771196 -0.574655 0.634305 0.517135
29.761656 -28.300865 -33.259026 0.449223 -0.892360 0.043495
37.875854 -27.148987 -41.463268 0.386818 -0.870170 0.305248
37.834526 -26.416462 -40.738487 0.726195 -0.026416 0.686981
29.049274 -42.612518 -23.740074 0.359556 -0.602427 -0.712602
31.484341 -50.461414 -76.625542 0.752873 -0.633633 -0.178021
33.740318 -42.675903 -83.375229 0.515849 -0.067611 0.854007
33.642803 -42.111698 -26.931019 -0.528382 0.829063 0.182941
40.569752 -23.802723 -52.193161 -0.228351 0.955052 -0.189030
35.811329 -28.084574 -88.225159 0.879433 0.453723 -0.143988
34.545094 -34.035332 -30.750551 0.742048 -0.215727 0.634686
40.161137 -24.452002 -50.038090 -0.329491 0.907572 0.260286
29.750126 -49.621685 -76.510422 -0.989011 0.124349 -0.079967
34.272465 -26.980587 -85.169243 -0.171899 0.760266 0.626455
43.028564 -46.274075 -49.068977 0.006553 -0.499668 -0.866192
40.521992 -50.529373 -62.754429 -0.446779 0.291621 -0.845781
39.272034 -44.710827 -79.704094 0.840601 0.507324 -0.189767
35.067108 -24.960011 -40.374393 -0.524253 0.812703 -0.254308
32.530334 -36.097420 -88.242210 -0.718642 0.312800 0.621055
45.314354 -39.608284 -54.736790 0.822864 -0.324134 -0.466724
33.777439 -42.609509 -86.733055 0.390046 -0.818596 -0.421621
35.188244 -30.038361 -88.577087 -0.017177 -0.806289 0.591273
32.360970 -43.547066 -83.124084 0.198824 -0.707853 0.677800
27.785540 -46.052837 -83.076248 -0.769356 0.354585 0.531377
41.863636 -23.744707 -56.340904 -0.331813 -0.935532 -0.121156
33.966816 -44.120129 -27.686289 -0.337400 -0.585699 -0.736965
34.430183 -31.059822 -32.840015 -0.421985 0.639471 0.642655
35.988411 -47.442783 -78.316467 0.383354 -0.629454 0.675890
29.223249 -27.384439 -31.381939 0.316400 0.694533 0.646153
29.428890 -28.507547 -31.131256 0.971767 -0.033795 0.233510
32.380226 -36.421135 -89.150131 -0.906836 -0.122865 -0.403179
31.346510 -35.307091 -30.022556 -0.860641 0.122246 -0.494321
34.447861 -31.988338 -35.153709 -0.473598 -0.467077 -0.746689
31.286510 -37.207890 -26.726809 -0.622353 -0.155005 0.767236
38.081406 -24.096727 -43.843407 0.307665 0.933601 0.183662
34.869190 -37.665649 -30.706789 0.206751 0.652761 -0.728805
42.032154 -23.771641 -58.142036 -0.806529 -0.351964 -0.475008
28.384565 -29.990993 -30.169735 -0.832646 -0.210376 -0.512291
34.221073 -31.903166 -90.129303 0.412522 -0.416371 0.810223
31.005754 -52.176331 -75.283134 0.321150 -0.571631 -0.755050
44.335526 -24.952381 -59.734028 0.984832 -0.135526 0.108345
32.939476 -36.055447 -28.164112 0.847066 0.489945 0.205992
29.759010 -45.192314 -84.500954 0.639419 -0.655953 0.401084
32.526508 -33.840420 -89.394249 -0.427513 0.361321 0.828662
30.489370 -51.249382 -76.403969 -0.157964 -0.829695 -0.535400
42.678680 -23.331049 -56.371365 0.787947 -0.264085 0.556236
45.057655 -41.561718 -50.806126 0.664354 0.462376 0.587233
37.550339 -27.160603 -42.867580 -0.115210 -0.933831 -0.338654
29.434910 -24.362944 -37.108551 -0.229633 0.337537 -0.912873
38.781132 -45.116814 -80.398819 0.528688 -0.129441 -0.838888
43.303341 -42.232761 -50.690022 -0.816295 0.140226 -0.560356
32.953136 -37.456642 -89.534973 -0.132582 -0.058800 -0.989426
32.236195 -36.563370 -26.719341 0.292139 0.500821 0.814759
31.761820 -38.306107 -88.505966 -0.961229 0.157781 -0.226149
28.374250 -41.538223 -24.150469 -0.629219 -0.491144 -0.602380
35.320354 -27.137243 -86.063316 0.555565 0.829654 0.054969
36.243671 -39.596123 -28.948433 0.788503 0.232018 0.569588
31.641544 -50.752243 -73.809921 0.715123 0.336327 0.612766
35.648918 -32.779949 -33.960407 0.742025 -0.588780 -0.320525
33.059521 -46.793449 -79.483231 -0.160545 0.907530 0.388091
30.568480 -53.978725 -74.791374 0.236414 -0.385945 -0.891714
34.409836 -48.016148 -78.511108 0.002690 -0.632937 0.774199
29.167410 -30.012697 -29.009529 0.637400 0.525128 0.563881
33.768398 -39.121929 -29.367849 -0.615223 -0.780008 -0.114408
34.509998 -41.902561 -29.679642 -0.736146 -0.175886 -0.653569
27.846436 -47.614040 -82.825264 -0.805168 -0.539239 0.246832
34.342129 -25.744352 -38.391281 -0.679997 0.724755 0.111058
31.124796 -41.987572 -84.152306 -0.327487 0.933247 0.147657
37.328606 -45.936474 -79.032967 0.351859 -0.327061 0.877055
39.660374 -24.813128 -51.431377 -0.948713 0.290986 -0.123573
29.677191 -34.067921 -26.893932 0.790419 0.392096 0.470636
28.599075 -38.347267 -24.247295 -0.511478 0.440162 0.738003
40.862625 -25.735327 -48.517349 0.979300 0.015633 0.201807
33.452805 -42.712013 -25.490883 0.101918 0.832633 0.544367
32.492371 -43.789192 -84.448593 0.237761 -0.898916 -0.367995
35.858051 -31.568436 -35.046581 0.641124 -0.405907 -0.651306
31.292725 -48.108448 -77.882118 0.135257 0.858855 0.494038
33.339947 -33.960484 -89.181946 0.288409 0.370541 0.882904
31.252760 -47.410023 -79.735725 -0.663247 0.745153 0.069646
35.866482 -31.036819 -90.712997 0.826313 -0.563010 -0.015038
36.299187 -41.358067 -28.970760 0.906083 -0.065606 0.417982
34.664757 -43.131203 -29.097466 -0.055928 -0.742621 -0.667372
35.514339 -40.557278 -28.260202 0.226692 0.288388 0.930292
29.826130 -43.684048 -83.706993 -0.353354 0.430707 0.830441
34.456219 -30.286003 -36.115051 -0.146485 -0.547817 -0.823674
32.306976 -36.769699 -29.599016 0.223553 -0.531870 -0.816785
44.123852 -43.584881 -50.021908 0.376643 -0.644020 -0.665866
27.609215 -30.606783 -28.711370 -0.929551 0.317669 0.187141
37.328457 -25.426361 -46.223434 -0.892717 -0.287473 -0.347009
43.927471 -24.152798 -59.908417 0.318481 0.751432 -0.577857
45.474281 -39.018547 -53.654675 0.831515 0.491982 0.257949
36.017509 -42.264771 -29.501495 0.770410 -0.576027 -0.273244
28.549685 -40.795589 -22.411076 -0.400229 0.441231 0.803201
33.609043 -34.029476 -32.839054 -0.581255 -0.346183 -0.736410
28.581736 -30.595285 -28.010214 -0.008260 0.637459 0.770440
32.603825 -44.079201 -26.737495 -0.736480 0.041900 -0.675161
33.894394 -43.245125 -84.344727 0.537923 -0.839593 0.075641
33.275768 -35.057735 -91.101723 0.214100 -0.481600 -0.849837
42.138233 -48.970947 -62.141300 0.544498 0.682119 -0.488095
35.405338 -39.686123 -31.369055 -0.136333 -0.034238 -0.990071
34.194763 -26.948019 -38.977959 -0.855220 -0.236575 -0.461120
33.921452 -31.500328 -33.520741 -0.963140 0.268858 0.008760
29.796190 -52.365314 -74.881424 -0.674960 -0.175994 -0.716558
34.293880 -40.709435 -86.164505 0.703302 0.685804 0.187187
28.088699 -44.354595 -84.837959 -0.764211 0.644814 0.014047
35.570286 -41.354855 -30.697737 0.206299 -0.448948 -0.869417
34.807171 -26.325232 -36.998203 0.240122 0.757384 0.607215
36.280312 -39.287907 -30.326689 0.884365 0.163748 -0.437132
30.409466 -36.515434 -26.314766 0.986559 0.133840 0.093742
42.354431 -21.821609 -56.513824 0.770233 0.632762 0.079711
42.347694 -25.193068 -52.987183 0.850425 -0.079864 0.519999
33.252789 -47.224205 -78.958969 -0.371660 0.419836 0.828013
33.845669 -33.725800 -91.064301 0.850797 -0.294144 -0.435459
29.152565 -48.254993 -81.691147 -0.453220 -0.542287 0.707472
29.231480 -39.679726 -23.154119 0.459802 0.429984 0.776979
34.207191 -38.375439 -30.786913 -0.588008 -0.105598 -0.801933
32.146107 -49.417812 -80.761848 -0.234513 -0.857942 -0.457098
39.710163 -27.136566 -47.698204 -0.380857 -0.785915 -0.487120
29.847155 -42.659107 -84.412460 -0.549133 0.808957 0.209860
34.731010 -40.224449 -30.431122 -0.836441 -0.331441 -0.436478
32.240574 -46.398567 -82.149872 0.256965 0.893334 -0.368677
40.081535 -25.775595 -51.492577 -0.334046 -0.934155 -0.125568
32.930355 -41.731907 -85.704689 -0.965404 0.255710 0.051071
32.329964 -47.866634 -82.593376 0.480218 -0.039659 -0.876252
28.630270 -26.517628 -32.671509 -0.356218 0.931478 -0.073877
33.805931 -39.945114 -88.223419 0.958738 0.258234 -0.118896
29.849535 -34.668324 -27.928549 0.817296 -0.060900 -0.572990
44.619606 -39.205105 -52.708092 -0.337922 0.760760 0.554123
29.321720 -46.907787 -81.651176 -0.287720 0.540844 0.790383
32.554066 -33.958076 -29.346355 0.123420 0.764870 0.632251
29.553869 -53.532192 -72.580238 -0.818064 0.345667 0.459658
34.411720 -28.672274 -88.048065 -0.987950 -0.154140 -0.013992
34.141327 -30.550550 -91.790352 -0.193757 0.556582 -0.807883
33.526421 -42.528454 -27.846577 -0.839492 0.196644 -0.506541
40.258678 -25.282919 -48.263783 0.033306 0.962157 0.270451
42.350342 -23.267286 -53.812332 0.529389 0.561494 0.635980
29.491249 -46.343407 -83.586517 0.876454 0.383222 -0.291496
39.553726 -25.853121 -47.472881 -0.564072 0.584265 -0.583487
33.330952 -48.623100 -81.073662 0.551414 -0.636054 -0.539794
34.597195 -28.441071 -84.640869 0.319340 -0.424408 0.847290
29.870544 -25.018562 -35.341007 -0.460823 0.599665 0.654251
28.928816 -29.304783 -31.681950 0.167156 -0.812591 -0.558351
43.964417 -44.701103 -48.032806 0.374084 0.189453 0.907837
35.729290 -47.831657 -79.049942 0.450023 -0.892143 -0.039502
33.225811 -48.936924 -79.737534 0.606380 -0.728609 0.318483
39.757236 -25.296640 -46.525906 0.512870 0.854289 0.084582
37.437744 -25.836775 -44.707741 -0.707665 -0.681146 -0.187751
30.724871 -55.194588 -71.095192 0.908242 0.230294 0.349372
28.216181 -38.681480 -25.394073 -0.968486 -0.022268 -0.248072
41.601566 -26.161045 -53.129845 0.337852 -0.901571 0.270232
29.417601 -31.050186 -29.166430 0.991203 -0.054345 -0.120675
29.677065 -48.703434 -82.488686 -0.162294 -0.980117 -0.114151
30.228004 -48.580647 -76.636742 -0.416911 0.864161 0.281800
42.751926 -25.103901 -57.654743 -0.162935 -0.879050 0.448021
43.671406 -25.348804 -59.492550 -0.244861 -0.967233 0.067106
41.912666 -47.125500 -47.978355 -0.517204 -0.251458 -0.818088
32.064587 -39.284008 -87.433884 -0.585837 0.235186 0.775553
34.301552 -34.880817 -32.416851 0.376143 -0.871004 -0.316021
43.197723 -24.038389 -59.345955 -0.534652 0.418728 -0.734039
43.602604 -25.691454 -60.756584 -0.171856 -0.402087 -0.899328
38.426231 -24.168816 -46.578651 0.159369 0.893190 -0.420491
41.877869 -22.096827 -57.925732 -0.075612 0.803720 -0.590183
34.390743 -48.263226 -80.170418 0.495776 -0.815870 -0.297594
35.447815 -27.443233 -40.021812 0.035831 -0.995368 -0.089214
30.749260 -26.521641 -33.477184 0.261183 0.429700 0.864373
35.398087 -33.445820 -32.104176 0.884289 -0.292052 0.364332
33.162643 -31.206553 -90.713486 -0.795201 0.559333 0.234097
31.505880 -26.240812 -34.464081 0.999661 -0.020867 0.015590
31.872524 -46.570049 -80.981972 -0.208897 0.940780 0.267010
30.204435 -50.631725 -77.436378 -0.644976 -0.675531 -0.357302
30.133101 -26.324125 -34.666294 -0.936445 0.331106 0.115927
28.282240 -28.148935 -33.089203 -0.749380 -0.362924 -0.553819
33.302181 -36.327812 -87.744278 0.094831 0.247641 0.964200
37.899593 -44.411133 -80.569160 0.037837 0.802013 -0.596107
29.369101 -25.266312 -36.390087 -0.921382 -0.388637 -0.004135
45.084675 -42.223972 -51.358707 0.832478 -0.542612 -0.112038
31.150915 -48.335411 -80.596992 -0.788075 -0.513757 0.339104
36.757332 -26.071358 -42.780933 -0.798573 -0.203088 -0.566600
32.599255 -33.506161 -30.632542 -0.626483 0.771639 -0.109964
44.760109 -39.158615 -55.601471 -0.302337 -0.435635 -0.847829
35.328735 -25.080877 -39.148975 0.157806 0.892546 0.422445
41.572941 -21.793959 -55.383831 -0.216989 0.936844 0.274298
31.019300 -47.268425 -80.670609 -0.633653 0.395869 0.664659
30.362089 -47.854954 -83.326637 0.303426 -0.232527 -0.924048
29.017200 -39.253914 -26.383467 -0.229609 -0.412289 -0.881645
32.352859 -36.019882 -30.641848 -0.190798 -0.755362 -0.626916
36.312336 -27.186600 -41.523422 -0.302766 -0.865898 -0.398187
40.521503 -26.538687 -46.016178 0.756376 0.199309 0.623034
34.511238 -41.952400 -84.772797 0.940499 0.067190 0.333089
35.046837 -29.823515 -33.550014 0.108666 0.677519 0.727433
35.849457 -28.740927 -86.904587 0.921546 -0.186469 0.340563
32.927784 -36.679863 -89.740944 -0.243486 -0.486984 -0.838786
31.475595 -53.407524 -72.702782 0.842378 0.100450 0.529443
31.248840 -35.575245 -27.736864 -0.749920 0.513679 0.416837
30.495399 -55.868546 -73.569359 0.286070 -0.677814 -0.677298
33.664696 -46.896286 -80.569016 0.365560 0.590360 -0.719612
38.799351 -24.539825 -45.584282 0.812344 0.560678 0.160431
34.160995 -37.055939 -28.400776 0.589985 0.761688 0.267858
33.290920 -33.856117 -29.842972 0.372166 0.473311 0.798416
27.686850 -45.816147 -84.620346 -0.930232 -0.131468 -0.342615
30.505505 -42.632404 -85.784248 -0.118390 0.613070 -0.781107
34.063202 -29.490299 -90.161705 -0.801291 0.582902 -0.134753
42.505970 -45.365513 -48.501015 -0.899825 0.369618 -0.231728
40.973083 -25.995438 -53.778942 -0.557090 -0.504731 -0.659468
33.991879 -31.019148 -90.000175 -0.533882 -0.083267 0.841449
35.289066 -41.697784 -27.563900 0.499857 0.450613 0.739656
28.007786 -41.330338 -22.954519 -0.983050 -0.032602 0.180416
35.341606 -39.029305 -28.471491 0.429324 0.082473 0.899377
29.305105 -42.267254 -21.437143 0.336685 0.446647 0.828945
31.850904 -51.694244 -74.342918 0.957761 -0.213708 -0.192411
32.581779 -42.907761 -85.181786 -0.153384 -0.141044 -0.978049
34.699169 -46.251392 -78.912872 -0.375067 0.913623 0.156903
32.456547 -49.738358 -79.888405 0.556426 -0.830478 -0.026395
33.050186 -36.829205 -29.168928 0.128457 0.713147 -0.689144
32.192280 -41.045826 -87.510399 -0.879436 -0.470632 0.071406
43.213966 -42.944630 -49.305103 -0.791861 0.433600 0.430056
41.285236 -25.196268 -51.803257 0.837716 -0.367727 0.403743
33.556862 -40.617928 -88.735405 0.568202 -0.264156 -0.779338
38.180859 -44.260612 -79.631958 -0.040460 0.913636 0.404515
28.123554 -29.027857 -31.153183 -0.944330 -0.322583 -0.064658
37.039757 -24.431601 -43.762531 -0.726379 0.685640 -0.047647
44.251678 -40.356373 -52.845993 -0.939683 -0.268777 -0.211555
39.806911 -26.610535 -49.227615 -0.617241 -0.742945 -0.258934
41.427704 -47.209377 -47.014893 -0.859138 0.511549 0.014118
28.740675 -43.264374 -21.216108 -0.723300 -0.076299 0.686305
34.070278 -29.521660 -34.651951 -0.752584 0.377922 0.539252
34.046516 -36.473694 -88.302925 0.907502 0.085650 0.411222
44.533356 -42.758732 -49.410904 0.906905 -0.055743 0.417632
31.672979 -42.461121 -83.096672 -0.154033 0.320941 0.934489
41.402554 -24.310549 -53.114510 -0.081346 0.980683 0.177889
41.564121 -23.362141 -53.887863 -0.731866 0.434324 0.525104
31.458509 -54.514801 -73.303001 0.901545 -0.342649 -0.264212
35.393291 -28.189581 -35.755085 0.835852 0.402566 0.373219
33.441673 -38.661640 -87.619087 0.683812 0.097173 0.723159
41.679520 -50.006096 -60.384651 0.212376 0.495226 0.842406
28.480949 -35.838863 -26.206623 -0.873510 0.164672 0.458109
27.971155 -33.701176 -27.583958 -0.976098 -0.216827 -0.014811
32.253574 -42.060623 -84.922859 -0.253337 0.751160 -0.609573
33.070042 -38.554024 -26.605049 0.167931 -0.334867 0.927180
39.086475 -27.004244 -46.702919 -0.470393 -0.881485 -0.041411
38.805328 -44.843967 -78.824760 0.337002 0.211519 0.917436
40.904667 -22.295881 -56.302597 -0.992971 0.002409 -0.118336
30.539480 -43.932999 -83.482994 0.061219 -0.463556 0.883950
27.955395 -32.075703 -29.118769 -0.698014 -0.290934 -0.654319
29.558306 -29.721186 -30.036066 0.999994 -0.003584 -0.000358
34.986214 -26.491636 -41.249847 -0.694710 -0.223601 -0.683652
42.696087 -22.569901 -57.177822 0.832285 0.551695 0.054167
30.004110 -27.018024 -33.048115 0.613038 0.519464 0.595266
30.770374 -26.985083 -35.450066 0.014170 -0.531193 -0.847133
32.623444 -32.160316 -91.692665 -0.700175 0.334991 -0.630504
37.786171 -25.394203 -41.347595 0.495680 0.736545 0.460221
40.277504 -25.028948 -53.080280 -0.721147 0.184132 -0.667864
35.399204 -27.912418 -38.118996 0.769958 -0.604725 -0.203647
34.031204 -37.797081 -27.364985 0.579570 0.169645 0.797069
30.659605 -52.890888 -72.266014 0.135368 0.417566 0.898507
34.744637 -29.464062 -87.283775 -0.473686 -0.854431 0.213469
31.028965 -25.937567 -35.837070 0.637311 -0.072377 -0.767200
36.677010 -26.530170 -39.689346 0.551853 -0.423774 0.718244
29.905285 -42.489697 -22.479967 0.962220 0.113209 -0.247623
42.308853 -25.529760 -54.215260 0.436410 -0.763916 -0.475372
33.914951 -30.058868 -35.547695 -0.888518 -0.319182 -0.329634
28.599760 -32.854362 -26.902571 -0.404603 0.270309 0.873630
33.647427 -28.295729 -85.013367 -0.920899 -0.211752 0.327272
36.926262 -45.322899 -80.954285 -0.222627 0.276433 -0.934892
31.370834 -48.669685 -82.338814 0.050743 -0.872682 -0.485646
31.821705 -49.708363 -75.446915 0.816602 0.503884 0.281534
33.784168 -38.040646 -88.730019 0.848282 -0.228024 -0.477936
31.548445 -34.389256 -29.572803 -0.687412 0.726008 0.019400
45.491402 -40.648514 -52.406464 0.953310 -0.295740 -0.061138
33.332329 -42.849571 -85.784302 -0.413444 -0.816569 -0.402839
29.271364 -27.494081 -34.076286 -0.644185 -0.027119 -0.764389
31.153900 -44.434875 -84.723900 0.377932 -0.925809 -0.006767
34.768406 -31.635149 -91.430481 0.730162 -0.403360 -0.551510
35.983028 -26.510038 -38.757160 0.859710 -0.028570 0.509982
32.804920 -48.191338 -78.694847 0.273321 -0.056212 0.960279
28.422235 -45.245422 -83.320328 -0.078939 0.527349 0.845974
41.496456 -24.402552 -54.605602 -0.902158 -0.266208 -0.339478
44.662891 -42.363155 -51.815533 -0.292234 -0.598449 -0.745961
33.663914 -41.347393 -84.154396 0.030871 0.913076 0.406620
33.222866 -35.165253 -29.299654 0.717427 0.111946 0.687581
34.276394 -39.155441 -27.954813 0.123964 -0.759076 0.639091
33.912563 -33.691536 -90.246727 0.940621 -0.131455 0.312973
35.337471 -29.453098 -86.872253 0.349388 -0.843627 0.407704
32.218506 -39.031033 -27.293758 -0.499241 -0.866450 0.004802
33.259045 -41.972073 -88.019104 -0.203919 -0.793967 -0.572742
40.687176 -49.385071 -61.804562 -0.563283 0.825737 0.029501
29.120790 -35.363373 -28.072414 -0.226390 -0.427656 -0.875133
33.946606 -27.421892 -35.929440 -0.510063 0.607632 0.608785
33.550533 -35.490936 -30.332027 0.716102 -0.688543 0.114479
33.965134 -43.411873 -25.198475 0.619354 0.329658 0.712549
28.759735 -30.722603 -30.123484 0.019274 -0.442015 -0.896801
30.698265 -46.460438 -82.741028 0.148300 0.854493 -0.497843
43.557911 -24.562517 -57.700756 0.794424 -0.230116 0.562083
37.317356 -46.285286 -80.698303 0.324685 -0.774525 -0.542854
38.755638 -26.292830 -42.596848 0.919357 -0.323066 0.224523
36.942966 -25.111412 -40.398808 0.498458 0.707543 0.500922
44.252323 -38.672634 -54.610760 -0.866351 0.478917 -0.141685
37.735077 -24.333584 -46.531124 -0.564922 0.618907 -0.545726
37.964378 -25.414558 -47.218620 -0.470182 0.030171 -0.882054
34.423092 -41.713608 -86.836594 0.920224 -0.238906 -0.310019
30.374861 -50.214554 -73.335487 -0.017709 0.702491 0.711472
29.538630 -52.352921 -73.951874 -0.981888 -0.039021 -0.185398
32.492535 -35.056606 -90.917702 -0.567019 -0.367436 -0.737211
35.922836 -31.065096 -33.835827 0.956711 0.153828 0.247064
28.715345 -36.739517 -26.932970 -0.657168 -0.281238 -0.699311
29.663111 -26.676523 -33.655800 -0.274962 0.961448 -0.003765
35.727531 -46.390060 -77.963860 -0.055253 0.285178 0.956881
33.538342 -32.576225 -31.255213 -0.395971 0.833695 0.384914
31.673294 -48.831612 -81.196503 -0.434541 -0.887969 0.150613
28.597605 -47.226406 -84.366722 -0.025394 -0.637226 -0.770259
44.378319 -41.254757 -51.227551 -0.736913 0.675437 0.027273
30.251715 -24.468567 -36.218025 0.363458 0.895757 0.255965
29.393110 -43.390556 -85.535973 -0.540329 0.673341 -0.504635
33.443100 -32.871567 -32.684692 -0.855826 0.351017 -0.379933
30.158035 -48.342270 -78.724144 -0.727894 0.677044 -0.108544
31.965250 -39.960468 -88.953918 -0.720650 -0.319366 -0.615361
38.835468 -45.763168 -79.384796 0.611064 -0.764916 0.203726
32.076611 -33.509537 -90.776962 -0.989685 0.142336 0.016261
42.905193 -45.953590 -47.548664 -0.116221 0.534512 0.837132
44.992725 -40.700645 -53.129208 0.209877 -0.777399 -0.592960
35.929916 -29.518669 -89.568382 0.992613 -0.119581 -0.020512
31.114155 -50.482265 -79.033768 -0.042107 -0.941864 -0.333346
35.467361 -28.094563 -89.322838 0.252239 0.803562 -0.539132
35.532795 -30.058691 -91.217224 0.591672 0.281864 -0.755299
29.452150 -45.239017 -85.377449 0.448308 -0.606388 -0.656744
29.844460 -36.654907 -25.090305 0.425095 0.421149 0.801204
35.051380 -46.351757 -79.715935 -0.303779 0.664751 -0.682513
41.340084 -50.922871 -62.941326 0.219822 -0.167937 -0.960976
35.526375 -29.595781 -36.198475 0.809841 -0.295010 -0.507077
43.125179 -43.810066 -49.731892 -0.719813 -0.079410 -0.689611
35.201366 -31.638798 -32.415741 0.433512 0.469752 0.769026
35.484707 -47.244617 -79.883308 0.126351 -0.254725 -0.958724
33.735809 -39.993328 -87.015350 0.478776 0.746235 0.462501
29.679476 -50.873161 -73.630035 -0.820032 0.365486 0.440417
44.190907 -45.095764 -48.706863 0.906434 -0.404200 -0.122470
29.989571 -39.038647 -24.261780 0.899066 0.043953 0.435602
43.557041 -23.739365 -58.546814 0.670751 0.736083 -0.090967
43.835445 -41.436981 -49.708473 -0.152650 0.809933 0.566309
30.403126 -28.357546 -34.318592 0.393971 -0.915801 -0.078071
32.546429 -37.839062 -29.217312 -0.413277 -0.352051 -0.839799
38.764889 -25.184237 -43.185902 0.836310 0.450938 0.311833
28.173389 -45.358974 -85.520111 -0.417256 -0.047867 -0.907527
29.441734 -40.522335 -25.311747 0.345075 -0.618267 -0.706165
29.292450 -36.739853 -24.830507 -0.176986 0.432889 0.883902
34.701542 -27.968403 -38.521420 -0.180947 -0.778981 -0.600373
33.488869 -40.418289 -86.158409 -0.092169 0.824983 0.557590
40.848869 -24.544359 -50.223114 0.629823 0.715452 0.302410
30.164524 -49.522182 -79.331993 -0.801871 -0.198935 -0.563407
34.688187 -40.065945 -29.095989 -0.915458 -0.104813 0.388525
30.426186 -26.302073 -35.865009 -0.244334 -0.664239 -0.706462
29.520220 -55.635506 -73.470284 -0.484383 -0.583156 -0.652152
31.110756 -37.221313 -28.292049 -0.802954 -0.462992 -0.375371
35.638287 -37.804379 -29.671186 0.637328 0.765467 0.088733
36.954826 -24.926443 -42.413235 -0.363200 0.896709 -0.252981
29.231991 -54.354603 -73.204826 -0.991844 0.050920 -0.116843
34.856613 -28.916456 -34.718739 -0.019863 0.677542 0.735216
29.364731 -44.214085 -85.834717 -0.076359 0.028048 -0.996686
33.360088 -32.521412 -92.222527 0.113375 -0.134585 -0.984395
28.952644 -35.419579 -25.862780 -0.060179 0.424920 0.903229
36.546715 -44.909695 -79.476631 -0.341170 0.926049 0.161359
30.033480 -39.077393 -25.948200 0.659005 -0.373467 -0.652867
38.370773 -26.124861 -44.914017 0.164383 -0.935914 0.311518
40.503246 -26.068748 -49.965240 0.436802 -0.879187 -0.190355
30.982185 -43.578629 -85.711922 0.306662 -0.368103 -0.877758
29.271980 -31.980364 -27.470800 0.585868 0.389671 0.710574
29.811356 -40.960709 -23.765724 0.972557 -0.228437 -0.044143
42.469151 -23.474531 -55.525303 0.979839 -0.199591 -0.008841
38.964424 -25.512806 -45.104733 0.843023 0.089891 0.530313
33.599716 -27.757561 -36.685444 -0.989650 0.134492 0.050042
34.734467 -27.843012 -88.453232 -0.463684 0.782708 -0.415169
28.932116 -44.038506 -84.013710 -0.556645 0.702284 0.443784
28.247705 -27.635321 -31.373829 -0.786070 0.495192 0.369971
44.999901 -38.195869 -55.007252 0.357220 0.888927 -0.286711
