ply
format ascii 1.0
element vertex 410
property float x
property float y
property float z
property float nx
property float ny
property float nz
end_header
79.482826 -37.722328 -65.552345 0.309760 -0.940094 0.142381
67.017700 -29.458618 -125.892708 -0.642605 0.712240 -0.282441
62.987400 -64.849594 -108.533386 0.873406 -0.129626 0.469425
55.996269 -43.715790 -39.442303 -0.574655 0.634305 0.517135
58.523312 -41.456768 -44.956421 0.449223 -0.892360 0.043495
74.751709 -38.138813 -57.677521 0.386818 -0.870170 0.305248
74.669052 -37.160637 -56.712624 0.726195 -0.026416 0.686981
61.968681 -66.964951 -106.817642 0.752873 -0.633633 -0.178021
66.480637 -53.815655 -118.585831 0.515849 -0.067611 0.854007
80.139503 -30.995951 -74.665215 -0.228351 0.955052 -0.189030
70.622658 -30.657442 -128.755508 0.879433 0.453723 -0.143988
68.090187 -50.672810 -40.041706 0.742048 -0.215727 0.634686
79.322273 -32.395821 -71.257622 -0.329491 0.907572 0.260286
61.463539 -80.911804 -85.122322 -0.574597 0.680489 -0.454723
58.500252 -65.707291 -106.802170 -0.989011 0.124349 -0.079967
67.544930 -29.557255 -124.309151 -0.171899 0.760266 0.626455
85.057129 -65.833107 -65.624298 0.006553 -0.499668 -0.866192
80.043983 -69.710625 -85.667770 -0.446779 0.291621 -0.845781
77.544067 -57.615753 -112.604126 0.840601 0.507324 -0.189767
69.134216 -35.010632 -56.435234 -0.524253 0.812703 -0.254308
64.060669 -42.864250 -127.255219 -0.718642 0.312800 0.621055
89.628708 -54.596127 -75.530632 0.822864 -0.324134 -0.466724
66.554878 -53.074898 -123.715164 0.390046 -0.818596 -0.421621
69.376488 -33.567608 -128.919617 -0.017177 -0.806289 0.591273
63.721939 -55.190979 -118.037201 0.198824 -0.707853 0.677800
54.571079 -59.018414 -117.487015 -0.769356 0.354585 0.531377
82.727272 -30.117500 -80.996628 -0.331813 -0.935532 -0.121156
58.695469 -82.477592 -80.060379 0.853587 0.228467 0.468180
67.860367 -45.740707 -43.792416 -0.421985 0.639471 0.642655
70.976822 -62.043049 -109.969276 0.383354 -0.629454 0.675890
57.446499 -40.417850 -42.270657 0.316400 0.694533 0.646153
57.857780 -42.177002 -41.674740 0.971767 -0.033795 0.233510
83.561920 -69.961220 -83.144600 0.894208 -0.123559 0.430262
63.760448 -43.184597 -128.577057 -0.906836 -0.122865 -0.403179
61.693020 -52.749397 -38.690140 -0.860641 0.122246 -0.494321
67.895721 -46.714886 -47.141182 -0.473598 -0.467077 -0.746689
61.573021 -56.273613 -33.305992 -0.622353 -0.155005 0.767236
75.162811 -33.034389 -61.885780 0.307665 0.933601 0.183662
82.287918 -74.238274 -79.420341 0.777859 -0.621252 -0.094774
68.738380 -56.213066 -39.283531 0.206751 0.652761 -0.728805
83.064308 -29.815468 -83.736084 -0.806529 -0.351964 -0.475008
53.855499 -83.640205 -79.417976 -0.839524 -0.509092 -0.189803
55.769131 -44.620640 -39.927006 -0.832646 -0.210376 -0.512291
79.807381 -75.019386 -81.258240 -0.143747 -0.984402 -0.101442
67.442146 -36.113560 -130.929688 0.412522 -0.416371 0.810223
59.234200 -76.404045 -94.888550 -0.235540 0.959680 0.153414
61.120090 -76.898766 -97.517769 0.998001 -0.052318 0.035442
61.011509 -69.833855 -104.445419 0.321150 -0.571631 -0.755050
87.671051 -31.311459 -85.937073 0.984832 -0.135526 0.108345
64.878952 -54.243736 -35.715687 0.847066 0.489945 0.205992
58.518021 -57.435764 -119.821907 0.639419 -0.655953 0.401084
64.053017 -39.205574 -129.440613 -0.427513 0.361321 0.828662
59.978741 -68.207870 -106.329918 -0.157964 -0.829695 -0.535400
57.019920 -84.147301 -82.414619 -0.419099 -0.838353 -0.348597
84.357361 -29.481361 -81.121841 0.787947 -0.264085 0.556236
53.809399 -82.388336 -78.337860 -0.937054 0.318770 0.142530
61.205650 -80.678543 -84.243896 -0.141954 0.946883 -0.288552
77.156189 -73.105843 -75.904778 -0.585243 0.710114 0.391444
89.115311 -58.321487 -69.168968 0.664354 0.462376 0.587233
74.100677 -37.889027 -59.815212 -0.115210 -0.933831 -0.338654
59.806370 -79.124863 -96.748993 0.361452 -0.846668 -0.390519
57.869820 -34.722878 -51.572441 -0.229633 0.337537 -0.912873
76.562263 -58.102077 -113.585411 0.528688 -0.129441 -0.838888
85.606682 -59.366146 -68.864235 -0.816295 0.140226 -0.560356
64.906273 -44.689209 -128.966248 -0.132582 -0.058800 -0.989426
63.472389 -55.292912 -33.417381 0.292139 0.500821 0.814759
62.523640 -46.179630 -127.236435 -0.961229 0.157781 -0.226149
69.640709 -29.625671 -125.641708 0.555565 0.829654 0.054969
78.066887 -73.836632 -78.641640 -0.520625 0.120980 -0.845171
62.283089 -67.944427 -102.471779 0.715123 0.336327 0.612766
70.297836 -48.148449 -45.172031 0.742025 -0.588780 -0.320525
65.119041 -60.831348 -111.870880 -0.160545 0.907530 0.388091
57.276630 -79.841316 -82.586563 0.085686 0.989241 -0.118579
60.136959 -72.674034 -103.352760 0.236414 -0.385945 -0.891714
67.819672 -62.879669 -110.156654 0.002690 -0.632937 0.774199
57.334820 -44.874702 -38.154938 0.637400 0.525128 0.563881
66.536797 -58.687195 -36.965855 -0.615223 -0.780008 -0.114408
64.342949 -83.070000 -85.940651 0.257911 -0.903254 -0.342949
54.692871 -61.445194 -116.807190 -0.805168 -0.539239 0.246832
67.684258 -36.583557 -53.263954 -0.679997 0.724755 0.111058
61.249592 -52.618755 -119.901062 -0.327487 0.933247 0.147657
73.657211 -59.611244 -111.347992 0.351859 -0.327061 0.877055
78.320747 -32.680717 -73.311943 -0.948713 0.290986 -0.123573
58.354382 -51.457069 -34.158749 0.790419 0.392096 0.470636
56.198151 -58.482098 -29.310665 -0.511478 0.440162 0.738003
80.725250 -34.641026 -68.695862 0.979300 0.015633 0.201807
63.984741 -55.307644 -120.009377 0.237761 -0.898916 -0.367995
70.716103 -46.095436 -47.057922 0.641124 -0.405907 -0.651306
61.585449 -63.140133 -109.180603 0.135257 0.858855 0.494038
65.679893 -39.428970 -129.094238 0.288409 0.370541 0.882904
61.505520 -61.722794 -112.138184 -0.663247 0.745153 0.069646
65.350594 -81.083038 -88.249146 0.837510 -0.427784 -0.339967
70.732964 -34.682228 -131.984161 0.826313 -0.563010 -0.015038
58.652260 -55.288685 -118.899345 -0.353354 0.430707 0.830441
67.912437 -43.937740 -48.930340 -0.146485 -0.547817 -0.823674
63.613949 -55.058811 -37.766155 0.223553 -0.531870 -0.816785
87.247704 -61.553776 -67.588608 0.376643 -0.644020 -0.665866
54.218430 -45.836769 -37.587440 -0.929551 0.317669 0.187141
73.656914 -34.607159 -65.259224 -0.892717 -0.287473 -0.347009
86.854942 -30.059828 -86.355103 0.318481 0.751432 -0.577857
60.669460 -77.745567 -98.088348 0.589315 -0.730697 -0.344659
89.948563 -53.903595 -73.994026 0.831515 0.491982 0.257949
66.218086 -50.266083 -43.225300 -0.581255 -0.346183 -0.736410
56.163471 -45.952805 -36.521202 -0.008260 0.637459 0.770440
57.156250 -80.915039 -84.331200 -0.287886 0.585968 -0.757471
66.788788 -54.498371 -119.954735 0.537923 -0.839593 0.075641
65.551537 -40.735298 -131.810608 0.214100 -0.481600 -0.849837
83.276466 -67.452660 -85.030327 0.544498 0.682119 -0.488095
69.810677 -59.165733 -39.907845 -0.136333 -0.034238 -0.990071
67.389526 -38.305969 -53.928669 -0.855220 -0.236575 -0.461120
66.842903 -46.282291 -44.745804 -0.963140 0.268858 0.008760
75.676071 -76.146767 -78.331421 -0.301922 0.152595 -0.941041
58.592381 -70.198341 -103.797295 -0.674960 -0.175994 -0.716558
67.587761 -50.287838 -123.210716 0.703302 0.685804 0.187187
55.177399 -56.095047 -120.494995 -0.764211 0.644814 0.014047
79.345428 -73.087723 -84.087074 -0.418773 -0.518623 -0.745426
68.614342 -37.734055 -51.030525 0.240122 0.757384 0.607215
71.560623 -58.757477 -38.395329 0.884365 0.163748 -0.437132
82.553703 -73.029778 -76.577972 0.981756 -0.002751 -0.190124
65.015953 -80.965187 -83.787552 0.643205 0.496705 0.582728
61.695030 -81.096527 -82.619202 0.208800 0.816806 0.537801
59.818932 -55.296928 -32.810017 0.986559 0.133840 0.093742
83.708862 -27.154127 -81.626427 0.770233 0.632762 0.079711
83.695389 -32.963329 -75.610321 0.850425 -0.079864 0.519999
65.505577 -61.587597 -110.989960 -0.371660 0.419836 0.828013
66.691338 -38.712811 -132.007294 0.850797 -0.294144 -0.435459
57.305130 -62.637909 -114.956924 -0.453220 -0.542287 0.707472
57.631550 -80.527016 -80.860458 0.577535 0.808265 0.114721
67.414383 -57.279388 -39.270428 -0.588008 -0.105598 -0.801933
63.292210 -64.586838 -113.319359 -0.234513 -0.857942 -0.457098
81.274239 -71.635674 -73.414246 -0.160356 0.930862 0.328301
78.420326 -36.932278 -67.180740 -0.380857 -0.785915 -0.487120
61.058060 -77.520164 -90.729851 -0.413679 0.841889 0.346544
58.694309 -53.592491 -120.169571 -0.549133 0.808957 0.209860
68.462021 -60.164700 -38.376076 -0.836441 -0.331441 -0.436478
63.481152 -59.721691 -116.009544 0.256965 0.893334 -0.368677
79.163071 -34.135677 -73.221870 -0.334046 -0.934155 -0.125568
64.860710 -51.933479 -122.315292 -0.965404 0.255710 0.051071
63.659931 -61.874268 -116.405724 0.480218 -0.039659 -0.876252
56.260540 -38.851360 -44.400818 -0.356218 0.931478 -0.073877
66.611862 -48.730988 -126.493690 0.958738 0.258234 -0.118896
58.699070 -52.174896 -35.620941 0.817296 -0.060900 -0.572990
88.239212 -54.368176 -72.516083 -0.337922 0.760760 0.554123
57.643440 -60.592636 -115.152634 -0.287720 0.540844 0.790383
63.551689 -80.530930 -90.849815 0.340063 -0.881851 -0.326643
64.108131 -50.822556 -37.916695 0.123420 0.764870 0.632251
58.107738 -72.414764 -100.068466 -0.818064 0.345667 0.459658
67.823441 -31.586718 -128.373703 -0.987950 -0.154140 -0.013992
67.282654 -33.736038 -133.718460 -0.193757 0.556582 -0.807883
79.517357 -33.999943 -68.395645 0.033306 0.962157 0.270451
83.700684 -29.871635 -77.234505 0.529389 0.561494 0.635980
57.982498 -59.363991 -118.209221 0.876454 0.383222 -0.291496
78.107452 -35.019466 -67.081856 -0.564072 0.584265 -0.583487
65.661903 -63.316452 -113.945877 0.551414 -0.636054 -0.539794
68.194389 -31.883396 -123.225822 0.319340 -0.424408 0.847290
58.846821 -79.918694 -91.973427 -0.723499 -0.574845 0.382235
58.741089 -36.058594 -48.754162 -0.460823 0.599665 0.654251
56.857632 -43.286945 -42.362034 0.167156 -0.812591 -0.558351
86.928833 -63.633564 -64.344986 0.374084 0.189453 0.907837
70.458580 -62.495914 -111.012871 0.450023 -0.892143 -0.039502
65.451622 -64.049156 -111.850098 0.606380 -0.728609 0.318483
78.514473 -34.351875 -65.744843 0.512870 0.854289 0.084582
65.646500 -78.731400 -88.442230 0.806744 0.589533 -0.040198
73.875488 -35.521255 -62.871422 -0.707665 -0.681146 -0.187751
60.449741 -75.230812 -97.488892 0.908242 0.230294 0.349372
55.432362 -58.772945 -30.994476 -0.968486 -0.022268 -0.248072
55.175732 -80.981712 -78.681335 -0.255870 0.944235 0.207245
82.203133 -34.411175 -75.643333 0.337852 -0.901571 0.270232
57.835201 -46.425755 -38.196407 0.991203 -0.054345 -0.120675
63.896400 -79.268433 -85.382362 -0.067279 0.977336 0.200719
58.354130 -63.169334 -116.086807 -0.162294 -0.980117 -0.114151
59.456009 -64.096886 -107.192947 -0.416911 0.864161 0.281800
84.503853 -31.938398 -82.739777 -0.162935 -0.879050 0.448021
86.342812 -31.961529 -85.493591 -0.244861 -0.967233 0.067106
57.517719 -76.100243 -97.061264 -0.731826 0.555582 0.394663
82.825333 -67.338257 -63.800220 -0.517204 -0.251458 -0.818088
63.129169 -47.873974 -125.416519 -0.585837 0.235186 0.775553
67.603104 -51.643780 -42.419785 0.376143 -0.871004 -0.316021
85.395447 -29.992626 -85.519814 -0.534652 0.418728 -0.734039
86.205208 -32.242889 -87.354477 -0.171856 -0.402087 -0.899328
75.852463 -32.623238 -66.040039 0.159369 0.893190 -0.420491
82.755737 -27.304571 -83.725487 -0.075612 0.803720 -0.590183
67.781487 -62.940117 -112.638062 0.495776 -0.815870 -0.297594
69.895630 -38.861752 -55.424973 0.035831 -0.995368 -0.089214
60.498520 -38.704014 -45.627754 0.261183 0.429700 0.864373
57.630058 -78.467026 -96.248421 -0.866912 -0.497585 -0.029549
69.796173 -49.516674 -42.216660 0.884289 -0.292052 0.364332
79.763481 -74.858162 -79.032280 -0.492060 -0.841260 -0.223961
65.325287 -34.940777 -131.952560 -0.795201 0.559333 0.234097
62.011761 -38.088104 -47.185081 0.999661 -0.020867 0.015590
62.745049 -60.205452 -114.197220 -0.208897 0.940780 0.267010
59.408871 -67.070030 -108.020767 -0.644976 -0.675531 -0.357302
59.266201 -38.176540 -47.477352 -0.936445 0.331106 0.115927
55.564480 -41.257607 -44.726582 -0.749380 -0.362924 -0.553819
65.604362 -43.310169 -126.452583 0.094831 0.247641 0.964200
74.799187 -56.994305 -113.979401 0.037837 0.802013 -0.596107
57.738201 -36.236294 -50.305573 -0.921382 -0.388637 -0.004135
89.169350 -59.225388 -69.884857 0.832478 -0.542612 -0.112038
61.301830 -62.968861 -113.274330 -0.788075 -0.513757 0.339104
72.514664 -36.245728 -59.890656 -0.798573 -0.203088 -0.566600
64.198509 -49.888931 -39.962677 -0.626483 0.771639 -0.109964
88.520218 -53.746216 -76.933891 -0.302337 -0.435635 -0.847829
55.050529 -81.624863 -82.877052 -0.810440 0.108834 -0.575623
69.657471 -35.428223 -54.544910 0.157806 0.892546 0.422445
82.145882 -27.327229 -79.909805 -0.216989 0.936844 0.274298
61.038601 -61.328953 -113.589737 -0.633653 0.395869 0.664659
59.724178 -61.716801 -117.525307 0.303426 -0.232527 -0.924048
57.034401 -59.456768 -32.393089 -0.229609 -0.412289 -0.881645
63.705719 -53.717594 -39.498051 -0.190798 -0.755362 -0.626916
71.624672 -38.184669 -57.762020 -0.302766 -0.865898 -0.398187
80.043007 -36.341610 -64.731529 0.756376 0.199309 0.623034
68.022476 -52.446976 -120.853264 0.940499 0.067190 0.333089
69.093674 -43.721573 -45.109802 0.108666 0.677519 0.727433
82.129280 -72.551300 -82.099754 0.983846 -0.172652 0.047316
70.698914 -31.909138 -126.618172 0.921546 -0.186469 0.340563
62.890209 -77.053452 -92.236511 0.315900 0.943761 -0.097581
64.855568 -43.466312 -129.428070 -0.243486 -0.486984 -0.838786
61.951191 -72.201454 -100.278946 0.842378 0.100450 0.529443
61.497681 -53.593384 -35.156105 -0.749920 0.513679 0.416837
77.937988 -71.686401 -83.348747 -0.937351 0.272791 -0.216696
59.990799 -75.786522 -101.130676 0.286070 -0.677814 -0.677298
66.329391 -60.781239 -113.505806 0.365560 0.590360 -0.719612
76.598701 -33.377991 -64.454147 0.812344 0.560678 0.160431
81.156387 -73.795204 -83.370323 0.541949 -0.709352 -0.450678
67.321991 -55.723221 -35.885742 0.589985 0.761688 0.267858
65.581841 -50.572598 -38.692863 0.372166 0.473311 0.798416
54.373699 -58.363625 -119.885017 -0.930232 -0.131468 -0.342615
60.011009 -53.290516 -122.264999 -0.118390 0.613070 -0.781107
67.126404 -32.430634 -131.438660 -0.801291 0.582902 -0.134753
84.011940 -64.556816 -64.931892 -0.899825 0.369618 -0.231728
80.946167 -34.035175 -76.663979 -0.557090 -0.504731 -0.659468
66.983757 -34.791077 -130.901321 -0.533882 -0.083267 0.841449
69.683212 -58.716785 -35.617619 0.429324 0.082473 0.899377
62.701809 -69.278336 -103.104538 0.957761 -0.213708 -0.192411
64.163559 -53.824860 -121.294510 -0.153384 -0.141044 -0.978049
68.398338 -60.113995 -111.105003 -0.375067 0.913623 0.156903
78.741798 -72.858719 -79.562637 -0.987665 0.154943 -0.022600
63.913090 -65.241653 -111.927345 0.556426 -0.830478 -0.026395
65.100372 -55.231403 -37.099449 0.128457 0.713147 -0.689144
63.384560 -50.544075 -125.197533 -0.879436 -0.470632 0.071406
85.427933 -60.714695 -66.618286 -0.791861 0.433600 0.430056
81.570473 -33.193722 -73.805634 0.837716 -0.367727 0.403743
66.113724 -49.658707 -127.145706 0.568202 -0.264156 -0.779338
75.361717 -56.943455 -112.579948 -0.040460 0.913636 0.404515
58.800018 -77.986450 -92.567482 -0.857366 0.197861 0.475157
55.247108 -42.965675 -41.609043 -0.944330 -0.322583 -0.064658
73.079514 -33.560078 -61.698757 -0.726379 0.685640 -0.047647
87.503357 -56.096222 -72.506927 -0.939683 -0.268777 -0.211555
78.613823 -35.839390 -69.611465 -0.617241 -0.742945 -0.258934
67.140556 -43.051708 -46.846439 -0.752584 0.377922 0.539252
67.093033 -43.426052 -127.276077 0.907502 0.085650 0.411222
88.066711 -60.411263 -66.814911 0.906905 -0.055743 0.417632
62.345959 -53.541428 -118.202278 -0.154033 0.320941 0.934489
81.805107 -31.594286 -75.972443 -0.081346 0.980683 0.177889
82.128242 -30.001787 -77.331535 -0.731866 0.434324 0.525104
61.917019 -73.774406 -100.982658 0.901545 -0.342649 -0.264212
69.786583 -40.811752 -48.781136 0.835852 0.402566 0.373219
65.883347 -46.890327 -125.817276 0.683812 0.097173 0.723159
82.359039 -69.364639 -82.156364 0.212376 0.495226 0.842406
55.961899 -54.286564 -32.774097 -0.873510 0.164672 0.458109
54.942310 -50.766785 -35.280071 -0.976098 -0.216827 -0.014811
63.507149 -52.583302 -121.061325 -0.253337 0.751160 -0.609573
65.140083 -58.348061 -32.864052 0.167931 -0.334867 0.927180
77.172951 -36.920219 -65.689323 -0.470393 -0.881485 -0.041411
82.507690 -72.086151 -75.623726 0.596974 0.784016 -0.170122
76.610657 -57.986134 -111.238823 0.337002 0.211519 0.917436
80.809334 -27.917063 -81.214226 -0.992971 0.002409 -0.118336
60.078960 -55.710701 -118.510597 0.061219 -0.463556 0.883950
54.910789 -47.997524 -37.928444 -0.698014 -0.290934 -0.654319
58.116611 -44.234962 -39.774712 0.999994 -0.003584 -0.000358
68.972427 -37.177788 -57.477520 -0.694710 -0.223601 -0.683652
84.392174 -28.167906 -82.495705 0.832285 0.551695 0.054167
59.008221 -39.542137 -44.879383 0.613038 0.519464 0.595266
60.540749 -39.034428 -48.545773 0.014170 -0.531193 -0.847133
64.246887 -36.207626 -133.262985 -0.700175 0.334991 -0.630504
60.683102 -76.154305 -96.064545 0.596288 0.802632 -0.014927
74.572342 -35.486889 -57.835506 0.495680 0.736545 0.460221
79.555008 -32.695511 -75.783447 -0.721147 0.184132 -0.667864
69.798409 -39.939140 -52.436073 0.769958 -0.604725 -0.203647
67.062408 -57.049873 -34.166225 0.579570 0.169645 0.797069
60.319210 -71.497398 -99.711800 0.135368 0.417566 0.898507
68.489273 -32.938831 -127.058243 -0.473686 -0.854431 0.213469
58.639740 -82.775635 -84.633789 -0.405400 -0.284505 -0.868739
61.057930 -37.364494 -49.335018 0.637311 -0.072377 -0.767200
72.354019 -37.533745 -55.092274 0.551853 -0.423774 0.718244
83.617706 -33.242466 -77.417542 0.436410 -0.763916 -0.475372
66.829903 -43.699696 -48.109055 -0.888518 -0.319182 -0.329634
56.199520 -49.606190 -34.403065 -0.404603 0.270309 0.873630
66.294853 -31.590973 -123.821114 -0.920899 -0.211752 0.327272
72.852524 -58.310307 -114.392586 -0.222627 0.276433 -0.934892
61.741669 -63.146454 -115.864861 0.050743 -0.872682 -0.485646
62.643410 -66.041946 -105.165085 0.816602 0.503884 0.281534
66.568336 -45.732445 -127.628410 0.848282 -0.228024 -0.477936
65.753197 -82.121155 -84.627998 0.928475 -0.310343 0.204012
63.712669 -78.437958 -92.376869 0.868843 0.066891 -0.490548
62.096889 -51.436455 -38.179630 -0.687412 0.726008 0.019400
89.982803 -56.625111 -71.781525 0.953310 -0.295740 -0.061138
65.664658 -53.621422 -122.223724 -0.413444 -0.816569 -0.402839
57.542728 -40.071716 -46.355442 -0.644185 -0.027119 -0.764389
75.571457 -74.292923 -77.612640 -0.682103 0.614456 -0.396458
61.307800 -56.239105 -120.305908 0.377932 -0.925809 -0.006767
68.536812 -35.457306 -132.963501 0.730162 -0.403360 -0.551510
70.966057 -37.680626 -53.675636 0.859710 -0.028570 0.509982
64.609840 -63.111633 -110.403267 0.273321 -0.056212 0.960279
55.844471 -57.741573 -118.012733 -0.078939 0.527349 0.845974
79.151543 -71.089851 -81.688217 -0.558379 0.762189 0.327538
81.992912 -31.450464 -78.227058 -0.902158 -0.266208 -0.339478
88.325783 -59.350456 -70.554459 -0.292234 -0.598449 -0.745961
66.327827 -51.642841 -120.026184 0.030871 0.913076 0.406620
65.445732 -52.670959 -37.615593 0.717427 0.111946 0.687581
67.552788 -59.007408 -34.806274 0.123964 -0.759076 0.639091
66.825127 -38.816326 -130.767990 0.940621 -0.131455 0.312973
69.674942 -33.000511 -126.433258 0.349388 -0.843627 0.407704
63.437012 -58.943745 -33.822655 -0.499241 -0.866450 0.004802
65.518089 -51.858604 -125.796265 -0.203919 -0.793967 -0.572742
80.374352 -68.147850 -84.438324 -0.563283 0.825737 0.029501
57.241581 -53.206615 -35.707779 -0.226390 -0.427656 -0.875133
66.893211 -39.608734 -49.193043 -0.510063 0.607632 0.608785
66.101067 -52.970600 -39.126698 0.716102 -0.688543 0.114479
56.519470 -45.744282 -39.717171 0.019274 -0.442015 -0.896801
60.396530 -59.703369 -116.898567 0.148300 0.854493 -0.497843
86.115822 -31.104670 -82.913010 0.794424 -0.230116 0.562083
83.023827 -70.382957 -84.891472 0.854680 -0.329247 -0.401395
73.634712 -59.825558 -113.819206 0.324685 -0.774525 -0.542854
76.511276 -36.618271 -59.567959 0.919357 -0.323066 0.224523
72.885933 -35.236691 -56.443600 0.498458 0.707543 0.500922
87.504646 -53.194382 -75.516808 -0.866351 0.478917 -0.141685
74.470154 -32.883366 -65.936234 -0.564922 0.618907 -0.545726
79.944389 -72.028969 -75.960358 -0.295803 0.946816 0.126653
81.386307 -71.054367 -81.612823 0.615191 0.401703 0.678362
74.928757 -34.399616 -66.777946 -0.470182 0.030171 -0.882054
67.846184 -51.689995 -124.043587 0.920224 -0.238906 -0.310019
59.749722 -67.215462 -101.851250 -0.017709 0.702491 0.711472
58.077259 -70.356514 -102.383194 -0.981888 -0.039021 -0.185398
63.985069 -40.768635 -131.530411 -0.567019 -0.367436 -0.737211
70.845673 -45.559067 -45.308838 0.956711 0.153828 0.247064
56.430691 -55.520638 -33.709358 -0.657168 -0.281238 -0.699311
79.298012 -71.792763 -77.464943 -0.535084 0.831692 -0.148235
58.326221 -38.906006 -45.870422 -0.274962 0.961448 -0.003765
70.455063 -60.506065 -109.632477 -0.055253 0.285178 0.956881
62.167480 -81.571587 -87.547897 -0.619627 -0.774257 -0.128796
63.369160 -78.436401 -87.711304 -0.250976 0.939214 0.234284
66.076683 -48.353287 -41.088634 -0.395971 0.833695 0.384914
62.346588 -63.610783 -114.093346 -0.434541 -0.887969 0.150613
61.613350 -83.005974 -85.520111 -0.580660 -0.461938 -0.670408
81.904327 -71.041443 -79.227249 0.566106 0.815856 -0.117908
56.195210 -60.560902 -119.229912 -0.025394 -0.637226 -0.770259
87.756638 -57.773464 -69.869614 -0.736913 0.675437 0.027273
59.503429 -35.053455 -50.195332 0.363458 0.895757 0.255965
57.786221 -54.493084 -121.742271 -0.540329 0.673341 -0.504635
65.886200 -48.531044 -43.210636 -0.855826 0.351017 -0.379933
59.316071 -63.336040 -110.419159 -0.727894 0.677044 -0.108544
62.930500 -48.615238 -127.603912 -0.720650 -0.319366 -0.615361
76.670937 -59.280148 -111.917130 0.611064 -0.764916 0.203726
63.153221 -38.438000 -131.610626 -0.989685 0.142336 0.016261
84.810387 -65.634331 -63.368675 -0.116221 0.534512 0.837132
88.985451 -56.566887 -72.872917 0.209877 -0.777399 -0.592960
70.859833 -32.586880 -130.529160 0.992613 -0.119581 -0.020512
61.228310 -66.538017 -110.483345 -0.042107 -0.941864 -0.333346
77.932961 -73.270477 -82.409332 -0.874774 -0.482572 -0.043514
69.934723 -30.463581 -130.426254 0.252239 0.803562 -0.539132
70.065590 -33.095703 -132.938812 0.591672 0.281864 -0.755299
57.904301 -57.339985 -121.148613 0.448308 -0.606388 -0.656744
58.688919 -55.742695 -30.917606 0.425095 0.421149 0.801204
69.102760 -60.113968 -112.309601 -0.303779 0.664751 -0.682513
81.680168 -70.274635 -85.877617 0.219822 -0.167937 -0.960976
70.052750 -42.870083 -49.188927 0.809841 -0.295010 -0.507077
85.250359 -61.952160 -67.103783 -0.719813 -0.079410 -0.689611
69.402733 -46.703770 -43.035618 0.433512 0.469752 0.769026
69.969414 -61.442635 -112.394585 0.126351 -0.254725 -0.958724
61.506199 -80.845245 -89.826698 -0.383291 -0.891899 0.240008
66.471619 -49.034565 -124.643646 0.478776 0.746235 0.462501
58.358952 -68.162949 -102.174629 -0.820032 0.365486 0.440417
87.381813 -64.106567 -65.296944 0.906434 -0.404200 -0.122470
86.114082 -29.689186 -84.359032 0.670751 0.736083 -0.090967
86.670891 -58.340488 -67.520119 -0.152650 0.809933 0.566309
59.806252 -41.341316 -46.560200 0.393971 -0.915801 -0.078071
64.092857 -56.761024 -36.980824 -0.413277 -0.352051 -0.839799
76.529778 -34.816784 -60.676723 0.836310 0.450938 0.311833
55.346779 -57.495598 -121.343163 -0.417256 -0.047867 -0.907527
57.584900 -55.921616 -30.505545 -0.176986 0.432889 0.883902
68.403084 -39.947796 -53.038628 -0.180947 -0.778981 -0.600373
65.977737 -49.845352 -123.256882 -0.092169 0.824983 0.557590
80.697739 -32.501312 -71.521973 0.629823 0.715452 0.302410
59.329048 -65.018219 -111.120667 -0.801871 -0.198935 -0.563407
59.852371 -37.914612 -49.308163 -0.244334 -0.664239 -0.706462
58.040440 -75.450287 -101.024086 -0.484383 -0.583156 -0.652152
61.221512 -55.995926 -35.688564 -0.802954 -0.462992 -0.375371
70.276573 -56.621716 -37.679047 0.637328 0.765467 0.088733
61.850868 -79.543060 -87.937973 -0.919450 0.306237 0.246640
72.909653 -34.571133 -59.548431 -0.363200 0.896709 -0.252981
57.463982 -73.548996 -100.863564 -0.991844 0.050920 -0.116843
68.713226 -42.116772 -47.063488 -0.019863 0.677542 0.735216
57.729462 -55.691078 -122.040627 -0.076359 0.028048 -0.996686
65.720177 -36.656937 -134.001602 0.113375 -0.134585 -0.984395
56.905289 -53.713142 -32.330009 -0.060179 0.424920 0.903229
72.093430 -57.962116 -112.219635 -0.341170 0.926049 0.161359
59.066959 -59.270691 -31.763449 0.659005 -0.373467 -0.652867
75.741547 -35.920952 -63.130875 0.164383 -0.935914 0.311518
60.539089 -80.292107 -93.545517 -0.138760 -0.989619 -0.037415
80.006493 -34.873310 -70.838661 0.436802 -0.879187 -0.190355
60.964371 -54.746155 -121.974556 0.306662 -0.368103 -0.877758
57.543961 -48.166145 -35.435413 0.585868 0.389671 0.710574
83.938301 -29.861156 -79.805275 0.979839 -0.199591 -0.008841
76.928848 -34.951969 -63.538071 0.843023 0.089891 0.530313
66.199432 -39.976227 -50.281113 -0.989650 0.134492 0.050042
68.468933 -30.245905 -129.149048 -0.463684 0.782708 -0.415169
56.864231 -55.770390 -119.299202 -0.556645 0.702284 0.443784
55.495411 -40.801689 -42.210510 -0.786070 0.495192 0.369971
88.999802 -52.392357 -76.211800 0.357220 0.888927 -0.286711
