ply
format ascii 1.0
element vertex 182
property float x
property float y
property float z
property float nx
property float ny
property float nz
end_header
33.939751 -26.819429 -85.336845 -0.550202 0.807612 0.212229
32.389545 -48.473007 -78.387634 0.594740 0.054624 0.802060
28.192369 -29.598589 -29.931877 -0.749133 0.599624 0.281515
38.063530 -26.798241 -41.097084 0.638478 -0.588592 0.495889
33.642803 -42.111698 -26.931019 -0.541498 0.833800 0.107508
35.988190 -29.122932 -89.112198 0.986178 0.067378 -0.151368
43.028564 -46.274075 -49.068977 -0.163398 -0.443827 -0.881090
40.492050 -49.516212 -62.059078 -0.565354 0.799163 -0.204241
35.188244 -30.038361 -88.577087 0.188616 -0.856330 0.480752
27.785540 -46.052837 -83.076248 -0.788712 0.257293 0.558332
29.486925 -28.039614 -31.078531 0.816143 0.336748 0.469586
32.369259 -36.159245 -88.456833 -0.914027 0.188277 0.359314
38.081406 -24.096727 -43.843407 0.365746 0.914793 0.171416
40.884140 -22.312109 -56.554588 -0.966972 0.055263 -0.248819
31.441990 -50.580936 -76.348785 0.680575 -0.698592 -0.220878
33.135334 -35.839695 -28.997234 0.923474 0.321915 0.208725
30.412266 -50.977654 -77.554344 -0.232008 -0.914032 -0.332744
29.901735 -24.399830 -36.461361 -0.043935 0.991369 -0.123520
35.320354 -27.137243 -86.063316 0.752457 0.630037 0.191995
33.789024 -46.625546 -80.265381 0.354147 0.899385 -0.256294
35.648201 -47.731895 -78.224472 0.197378 -0.648247 0.735403
35.466347 -40.277107 -31.356636 -0.308466 -0.302617 -0.901816
34.868698 -24.931164 -39.998928 -0.581372 0.810355 -0.073022
29.887211 -35.661087 -25.810610 0.638799 0.419253 0.645107
35.873516 -32.158314 -34.550594 0.776222 -0.496534 -0.388502
30.391850 -48.399258 -77.088219 -0.081334 0.900164 0.427890
32.866562 -33.325798 -89.419525 -0.013842 0.361770 0.932165
31.712910 -46.807674 -80.511681 -0.509209 0.851067 0.128027
35.142769 -31.603825 -91.144119 0.849061 -0.520433 -0.090805
36.157555 -42.145966 -29.271717 0.901068 -0.430688 -0.050841
34.115093 -44.014305 -27.917208 -0.031457 -0.751459 -0.659029
34.446892 -31.740026 -35.276123 -0.372781 -0.556686 -0.742384
44.123852 -43.584881 -50.021908 0.456510 -0.647827 -0.609851
37.556046 -25.254797 -47.041176 -0.690366 -0.043421 -0.722156
44.118336 -24.585644 -59.517574 0.911666 0.406237 -0.061931
28.526745 -39.366638 -23.501181 -0.571582 0.402116 0.715260
42.138233 -48.970947 -62.141300 0.480921 0.762739 -0.432372
33.984348 -31.409508 -32.870090 -0.904251 0.396409 0.158715
36.280312 -39.287907 -30.326689 0.878594 0.316372 -0.357744
30.409466 -36.515434 -26.314766 0.993859 0.101447 0.044196
28.414690 -48.325130 -82.481163 -0.678124 -0.682219 0.273359
29.231480 -39.679726 -23.154119 0.390143 0.452159 0.802085
30.587894 -42.150543 -84.306946 -0.388631 0.921361 -0.007742
34.159760 -39.294868 -29.925068 -0.588174 -0.780282 -0.212629
39.637455 -25.196131 -51.015453 -0.839346 -0.538725 -0.072619
32.861721 -42.153091 -85.260094 -0.732697 0.444841 -0.515045
32.329964 -47.866634 -82.593376 0.539009 -0.143125 -0.830051
29.849535 -34.668324 -27.928549 0.849897 -0.027605 -0.526225
44.493671 -40.798782 -51.184677 -0.766712 0.640625 -0.041855
29.321720 -46.907787 -81.651176 -0.239247 0.585675 0.774432
34.411720 -28.672274 -88.048065 -0.999925 0.011737 0.003548
35.061684 -29.908962 -91.406662 0.151288 0.487953 -0.859659
33.084846 -43.518391 -27.306684 -0.782237 0.027706 -0.622364
42.409874 -24.649113 -52.974503 0.710212 0.417099 0.567122
29.491249 -46.343407 -83.586517 0.808202 0.576053 0.122366
34.597195 -28.441071 -84.640869 0.322613 -0.098920 0.941348
39.726028 -25.615088 -47.262638 0.246028 0.936746 -0.248953
37.950722 -26.232359 -44.932194 -0.222082 -0.972534 0.069692
29.417601 -31.050186 -29.166430 0.987613 0.037673 -0.152319
41.929119 -23.967533 -56.324863 -0.429852 -0.870078 -0.241230
31.758080 -38.414948 -88.085205 -0.858313 0.301325 0.415334
34.301552 -34.880817 -32.416851 0.298009 -0.855306 -0.423841
43.744591 -25.034561 -59.962158 -0.395478 -0.836423 -0.379465
41.877869 -22.096827 -57.925732 -0.113437 0.767907 -0.630438
33.705475 -48.599022 -80.636223 0.600286 -0.736558 -0.311671
31.372314 -26.250990 -34.238281 0.653832 0.414629 0.632919
35.246811 -33.446983 -31.671707 0.838430 -0.120244 0.531580
28.512505 -27.847084 -33.379147 -0.753027 -0.181712 -0.632400
31.150915 -48.335411 -80.596992 -0.867321 -0.319621 0.381572
37.322697 -27.039297 -42.826916 -0.145296 -0.899322 -0.412442
45.040203 -39.330215 -55.585659 0.324791 -0.687440 -0.649567
34.902828 -25.440580 -38.124393 0.210385 0.797984 0.564765
42.047112 -21.725716 -55.741928 0.279111 0.886561 0.368926
29.017200 -39.253914 -26.383467 -0.201744 -0.399391 -0.894308
32.175377 -36.642628 -29.918671 -0.337518 -0.372393 -0.864526
40.482395 -27.158604 -46.316658 0.796205 -0.248254 0.551749
34.200996 -42.470875 -83.630821 0.749272 -0.067307 0.658834
33.009514 -37.016628 -89.596031 -0.301684 -0.201024 -0.931974
31.737829 -50.844624 -73.868492 0.782135 0.267268 0.562878
31.136070 -36.748554 -26.700567 -0.665174 0.101497 0.739758
30.439369 -55.151051 -74.268860 0.193227 -0.555767 -0.808571
35.508671 -37.741299 -29.506996 0.701128 0.707698 0.087085
32.992668 -33.497772 -30.008648 -0.109630 0.811956 0.573331
33.816116 -30.127544 -90.607010 -0.788997 0.613429 0.034460
34.137508 -31.753824 -89.996849 0.108532 -0.424651 0.898828
28.047544 -41.285049 -23.758224 -0.973030 -0.196641 -0.120603
36.041248 -39.440739 -28.855247 0.682060 0.133693 0.718972
31.926531 -49.835899 -75.325661 0.963787 0.238346 0.119606
34.437431 -46.383663 -79.045593 -0.554852 0.826861 0.091876
32.616055 -49.560856 -79.619324 0.595731 -0.799096 0.080932
34.677551 -37.602818 -30.602615 0.185644 0.548484 -0.815292
33.760036 -40.248817 -88.746689 0.851060 -0.163466 -0.498974
38.988655 -44.337673 -80.110764 0.793780 0.522297 0.311639
44.538811 -40.751652 -52.891609 -0.596821 -0.637529 -0.487197
28.845896 -43.465778 -21.186028 -0.895512 -0.208001 0.393439
33.979000 -27.621367 -35.845322 -0.506032 0.673635 0.538654
44.162426 -43.913624 -48.423679 0.732578 -0.160951 0.661381
31.672979 -42.461121 -83.096672 -0.097586 0.365070 0.925851
41.481289 -24.508007 -53.831932 -0.773926 0.620817 -0.124999
33.346218 -36.779289 -87.689651 0.261595 0.255086 0.930860
42.213200 -49.777599 -60.789471 0.592075 0.399506 0.699887
28.371756 -35.716057 -26.505653 -0.974522 0.075557 0.211181
39.736118 -27.284050 -47.560394 -0.380349 -0.840076 -0.386791
31.496155 -43.713451 -83.246796 0.206040 -0.656940 0.725243
27.472244 -30.920671 -28.968100 -0.960639 0.010872 -0.277586
34.986214 -26.491636 -41.249847 -0.706542 -0.258604 -0.658728
30.211414 -26.484245 -34.334545 -0.273194 0.901328 0.336113
40.874077 -25.869768 -53.837833 -0.616607 -0.044968 -0.785986
32.459717 -36.831787 -26.578457 0.485469 0.403879 0.775372
30.659605 -52.890888 -72.266014 0.340118 0.412800 0.844936
29.758751 -41.508556 -23.134590 0.997517 0.067640 0.019589
42.205582 -26.078876 -53.694656 0.356730 -0.925622 -0.126366
28.421385 -30.850796 -27.814383 -0.343512 0.541746 0.767144
33.665813 -28.300295 -84.993271 -0.668644 -0.638386 0.381286
37.213329 -46.096321 -80.904747 0.077504 -0.191629 -0.978403
34.053574 -36.975975 -88.454353 0.998825 -0.046841 -0.012435
31.329065 -35.070915 -29.991091 -0.902693 0.241179 -0.356340
45.458050 -40.743954 -51.866226 0.943300 0.270333 0.192628
33.696941 -43.398727 -84.647377 0.175440 -0.973429 -0.147165
35.983028 -26.510038 -38.757160 0.870733 -0.164395 0.463464
28.426350 -44.988552 -83.572784 -0.244381 0.600722 0.761190
44.827499 -42.552212 -51.630211 0.066219 -0.697772 -0.713253
33.663914 -41.347393 -84.154396 -0.062287 0.934021 0.351747
33.260326 -38.734955 -26.733206 -0.038790 -0.641903 0.765804
33.966885 -33.742451 -90.787064 0.908219 -0.355892 0.220180
35.787174 -28.939011 -86.787277 0.664220 -0.617653 0.421088
32.218506 -39.031033 -27.293758 -0.563963 -0.821792 0.081263
31.928785 -40.300297 -88.822067 -0.563896 -0.556983 -0.609747
29.120790 -35.363373 -28.072414 -0.329793 -0.370744 -0.868208
35.456940 -41.091602 -27.979128 0.462576 0.408536 0.786843
28.788620 -30.036148 -30.514597 0.121577 -0.560537 -0.819156
32.175678 -46.378826 -82.136604 0.228032 0.864322 -0.448274
38.973991 -25.818750 -42.974991 0.951386 -0.244826 0.186885
37.768784 -25.278233 -41.285995 0.497331 0.699080 0.513759
38.111698 -24.160698 -46.653889 -0.010319 0.929277 -0.369239
34.261757 -42.116245 -86.748848 0.784940 -0.490144 -0.378982
29.661280 -52.168846 -74.813408 -0.861025 -0.231615 -0.452758
35.922836 -31.065096 -33.835827 0.948346 0.190904 0.253368
28.434765 -36.762077 -26.687885 -0.804338 -0.108542 -0.584174
35.727531 -46.390060 -77.963860 -0.068259 0.305558 0.949724
32.337490 -49.071117 -81.217834 0.018958 -0.888551 -0.458387
28.716921 -47.440754 -84.124626 0.192766 -0.512069 -0.837034
33.489697 -33.533524 -32.950157 -0.793496 -0.018313 -0.608300
29.917990 -48.688156 -77.989288 -0.946290 0.305181 -0.106772
37.624142 -45.821171 -79.131897 0.651520 -0.384735 0.653836
32.089714 -33.260906 -91.289993 -0.890362 0.210851 -0.403482
42.590462 -45.285126 -48.280598 -0.661616 0.548403 0.511389
35.085464 -28.043257 -89.186539 -0.126846 0.845727 -0.518320
30.430901 -44.752769 -84.938042 0.504325 -0.749607 -0.428655
35.338535 -28.333914 -37.385334 0.887847 -0.329629 -0.321049
43.298576 -42.320793 -50.497620 -0.756011 0.074579 -0.650296
35.126598 -30.948568 -32.700481 0.273741 0.612655 0.741431
35.780014 -47.759052 -79.577614 0.567569 -0.522578 -0.636221
30.143080 -50.124237 -73.432419 -0.334014 0.699524 0.631744
43.572609 -46.546844 -48.022774 0.910264 -0.209113 0.357340
43.835445 -41.436981 -49.708473 -0.271304 0.767299 0.581073
30.038815 -28.180105 -33.743999 0.653022 -0.756467 0.036334
33.712929 -38.123707 -30.338051 -0.552431 -0.352634 -0.755294
28.967815 -43.690498 -22.756565 -0.253563 -0.705567 -0.661726
27.727461 -45.041042 -85.196808 -0.807059 -0.059657 -0.587450
35.081055 -27.411240 -39.457047 0.113102 -0.959166 -0.259244
33.931156 -40.151546 -86.620399 0.599051 0.627735 0.497078
40.581783 -23.737955 -51.849106 -0.213327 0.960659 -0.177839
30.164524 -49.522182 -79.331993 -0.813478 -0.118878 -0.569316
34.688187 -40.065945 -29.095989 -0.923587 -0.056337 0.379228
30.982065 -26.369907 -35.815475 0.012006 -0.331483 -0.943385
31.110756 -37.221313 -28.292049 -0.803243 -0.469004 -0.367200
36.876549 -24.752563 -42.629749 -0.729037 0.593743 -0.340550
29.381735 -55.576988 -73.373688 -0.619144 -0.568513 -0.541714
35.352459 -28.344799 -35.426735 0.727453 0.473119 0.496961
33.202953 -33.368645 -92.106728 0.310376 -0.289989 -0.905303
29.069120 -36.114384 -25.466997 -0.196078 0.412734 0.889497
36.546715 -44.909695 -79.476631 -0.205480 0.951546 0.228776
30.033480 -39.077393 -25.948200 0.576537 -0.376076 -0.725377
41.138409 -25.137844 -51.449379 0.904681 -0.118907 0.409162
30.140305 -42.990608 -86.061928 -0.326918 0.550426 -0.768215
29.138596 -31.117901 -27.896488 0.457838 0.560588 0.690019
42.581635 -23.647650 -55.997574 0.867941 -0.451736 0.206429
38.951183 -24.923712 -45.404037 0.861345 0.465102 0.204363
33.664967 -27.711540 -37.224552 -0.966890 -0.122850 -0.223676
28.477434 -26.578291 -32.428478 -0.516834 0.834162 0.192504
44.419006 -38.334980 -55.067886 -0.627993 0.771794 0.099789
