ply
format ascii 1.0
element vertex 489
property float x
property float y
property float z
property float nx
property float ny
property float nz
end_header
39.028069 -45.621719 -46.701565 0.791724 -0.584792 -0.176614
31.993700 -40.602196 -62.887180 0.873406 -0.129626 0.469425
19.449770 -46.706562 -24.187469 0.151500 0.969801 -0.191138
30.842010 -46.074360 -37.351768 -0.355339 0.696337 -0.623577
31.365934 -47.583256 -39.401955 0.911056 0.325662 0.252828
22.764030 -43.091194 -22.216763 0.522110 -0.008944 0.852831
31.484341 -41.525219 -62.213913 0.752873 -0.633633 -0.178021
38.250317 -45.735271 -41.152493 0.253358 -0.966745 0.034825
29.000620 -48.496304 -26.963089 0.804425 -0.450971 0.386686
27.806515 -49.111538 -31.631277 -0.190599 0.902274 -0.386748
30.975370 -50.109493 -34.110519 0.889753 0.415221 0.189556
31.231770 -46.529270 -52.367054 -0.574597 0.680489 -0.454723
18.039961 -47.516109 -22.583843 -0.811469 0.556797 0.177469
31.102520 -48.340202 -38.055351 0.872214 -0.413424 0.261387
20.614605 -47.387604 -23.666449 0.707901 0.557895 -0.433162
29.750126 -40.868576 -62.074848 -0.989011 0.124349 -0.079967
30.592594 -47.159737 -37.000938 0.691006 0.584221 -0.425672
28.492464 -46.075161 -30.900118 -0.199291 0.973876 0.108849
22.508675 -51.991062 -23.646959 -0.192135 -0.980253 -0.046779
30.650145 -48.839066 -48.201260 0.500984 -0.144793 -0.853258
37.783680 -43.292625 -46.781559 -0.755444 0.538395 0.373410
27.785540 -38.497795 -66.943115 -0.769356 0.354585 0.531377
29.847734 -46.817501 -49.893730 0.853587 0.228467 0.468180
29.465525 -47.405704 -39.079865 -0.736265 0.575986 -0.355182
34.741058 -46.094868 -40.066486 -0.154600 0.533736 0.831399
33.145512 -48.086151 -37.046158 -0.163396 -0.825315 0.540515
25.337845 -48.527893 -29.022341 -0.391612 0.871916 -0.293943
29.430929 -47.119728 -26.526218 0.659435 -0.016461 0.751581
29.151279 -46.721230 -36.814575 -0.469770 0.764575 -0.441295
27.882166 -44.613506 -25.801382 0.392444 -0.881827 0.261476
35.690781 -44.988258 -34.506218 0.805423 -0.576271 0.138588
26.457355 -46.289268 -26.699915 -0.414879 -0.140586 -0.898950
34.738613 -47.903790 -38.049400 0.794010 0.290193 0.534169
22.698475 -41.001293 -24.264725 -0.688672 0.544901 -0.478345
27.375000 -48.268982 -30.073774 -0.868750 -0.415663 -0.269252
27.427750 -47.356110 -49.680248 -0.839524 -0.509092 -0.189803
33.692822 -46.046497 -31.319174 -0.055732 0.993687 -0.097364
38.213520 -43.489792 -46.312935 -0.349442 0.459918 0.816313
31.451929 -46.784870 -29.206753 0.364724 -0.569981 0.736273
24.918135 -41.656860 -23.741602 0.787119 -0.607432 -0.107094
19.869190 -44.805874 -22.051073 -0.931592 0.353670 -0.083982
29.051794 -51.331932 -41.933167 -0.207505 -0.920365 0.331466
31.446976 -46.533504 -35.812805 0.592644 -0.002483 0.805461
30.117100 -45.198799 -56.984077 -0.235540 0.959680 0.153414
31.060045 -45.730343 -58.404999 0.998001 -0.052318 0.035442
34.004269 -48.777321 -38.767708 -0.237240 -0.969911 0.054674
34.064026 -45.574451 -34.502331 -0.941822 -0.109398 -0.317809
27.903690 -48.060722 -34.112072 -0.784590 -0.599655 -0.157585
31.005754 -42.772331 -61.277225 0.321150 -0.571631 -0.755050
33.397736 -47.000984 -29.938305 0.388222 -0.401231 0.829637
31.058834 -48.911846 -45.139118 -0.310936 0.904825 0.290877
27.298670 -49.605564 -28.746178 0.557690 -0.817118 -0.145946
29.430595 -47.812347 -48.856670 0.527136 -0.627545 -0.572987
37.280354 -44.285374 -41.417843 -0.289015 0.885075 -0.364846
29.026665 -48.666729 -31.515068 -0.031083 -0.990253 -0.135769
30.327105 -43.312946 -25.329508 0.602186 -0.329853 -0.727027
30.489370 -42.121769 -62.089359 -0.157964 -0.829695 -0.535400
27.763596 -46.598854 -32.357944 -0.776659 0.615826 -0.132509
30.665545 -46.899940 -34.706032 0.936854 -0.026221 0.348736
27.777370 -43.274662 -25.376629 -0.362139 0.646625 0.671365
29.009960 -47.932373 -51.293823 -0.419099 -0.838353 -0.348597
27.404699 -46.591583 -48.987286 -0.937054 0.318770 0.142530
25.303080 -46.564178 -25.835136 -0.648412 0.309673 -0.695460
31.102825 -46.316280 -51.885246 -0.141954 0.946883 -0.288552
29.387760 -50.988167 -43.355476 0.799456 0.429004 -0.420506
30.403185 -46.809689 -58.236481 0.361452 -0.846668 -0.390519
29.741116 -47.963276 -50.468277 0.190598 -0.842948 0.503102
34.995895 -47.603077 -32.036224 0.001502 -0.972690 -0.232105
34.484203 -46.552860 -34.063869 -0.477663 -0.698420 -0.532961
28.961620 -50.865074 -39.569973 -0.972295 -0.134390 0.191261
30.305935 -50.788380 -33.056656 0.620176 -0.597033 0.508854
20.796650 -49.576523 -24.304899 0.112478 0.061888 -0.991725
29.412880 -47.071632 -28.635878 0.546127 -0.617573 -0.565994
31.641544 -41.582668 -60.052471 0.715123 0.336327 0.612766
27.933281 -46.318626 -27.022127 0.057307 -0.702285 -0.709586
22.035950 -41.433998 -23.295681 -0.755122 0.647105 0.105098
29.138315 -45.707584 -50.934837 0.085686 0.989241 -0.118579
25.716625 -50.482132 -23.893490 0.685309 -0.173462 0.707292
24.780365 -49.490410 -23.514198 0.476232 0.658515 0.582718
30.568480 -44.137775 -61.003983 0.236414 -0.385945 -0.891714
38.643784 -43.797596 -44.219410 0.150540 0.983975 -0.095555
32.671474 -47.738575 -53.018082 0.257911 -0.903254 -0.342949
30.014280 -47.622974 -29.779755 0.976044 0.127105 0.176586
27.846436 -39.690926 -66.841827 -0.805168 -0.539239 0.246832
28.521545 -50.589203 -41.642738 -0.975563 0.170624 0.138433
37.271774 -44.757458 -45.720562 -0.964536 0.042245 0.260550
25.961374 -48.590279 -25.420681 -0.079610 0.925914 0.369251
22.576775 -49.011246 -21.476494 0.661005 -0.057001 0.748214
30.222811 -44.228394 -26.137705 -0.236859 0.561629 0.792762
29.064510 -45.632637 -26.002438 0.222749 -0.365517 0.903759
35.195278 -43.739113 -35.470470 -0.327446 0.424101 -0.844344
35.077221 -43.570190 -34.460220 -0.633294 0.703910 0.321636
23.988110 -50.814735 -22.567261 0.545155 -0.053124 0.836650
30.889210 -50.275585 -47.281639 0.122722 -0.738115 -0.663420
32.039661 -49.515556 -46.715206 0.898842 0.108038 -0.424749
26.799370 -46.995220 -25.160643 0.589029 -0.601378 0.539805
27.298220 -50.736443 -26.723572 0.519791 -0.850677 -0.078527
27.031025 -47.518135 -27.882637 -0.621897 0.781353 -0.052271
27.297695 -44.175518 -26.612436 0.082990 -0.325863 -0.941767
29.912476 -45.874355 -35.957748 -0.335329 0.913081 -0.232029
19.866316 -50.866505 -23.070429 -0.417621 -0.891030 -0.177929
20.901566 -51.289761 -22.106733 -0.243394 -0.750173 0.614817
29.488720 -47.799568 -27.896135 0.781369 -0.555909 -0.283599
24.833050 -49.167725 -28.839657 -0.898909 0.028849 -0.437185
28.770775 -48.522617 -35.771069 -0.653340 -0.757065 -0.000526
28.228781 -47.763039 -50.199490 -0.249270 -0.945217 -0.210780
29.411896 -46.350368 -48.309830 0.685546 0.684172 0.248869
19.082745 -47.533508 -21.748676 -0.800437 0.451884 0.393829
39.498360 -43.952278 -47.398090 0.858633 -0.511131 0.038652
31.292725 -39.779270 -63.046204 0.135257 0.858855 0.494038
32.437141 -44.955788 -26.259123 0.266342 -0.959991 -0.086481
26.209185 -49.255585 -29.655619 -0.247167 0.847560 -0.469629
28.291759 -46.350471 -26.170540 0.500203 -0.812293 0.299961
33.175297 -46.944164 -54.013447 0.837510 -0.427784 -0.339967
21.727400 -48.173164 -22.394613 0.435751 0.720525 -0.539412
29.516279 -42.520157 -24.542053 -0.487840 0.801281 0.346354
30.679260 -51.104622 -44.391956 -0.551615 -0.822046 0.141282
31.934425 -49.066860 -45.610249 0.664948 0.744156 0.063845
21.697735 -49.992393 -21.441031 0.375244 -0.325521 0.867887
29.928780 -48.714157 -36.621735 0.423002 -0.878119 0.223556
34.064690 -47.261063 -39.007496 -0.166564 0.968097 -0.187201
27.995995 -43.798103 -25.116093 -0.259298 -0.183050 0.948292
34.850964 -46.742100 -41.583710 -0.020925 -0.377870 -0.925622
31.422276 -44.924282 -25.850595 0.042175 -0.556070 0.830065
30.131294 -51.347763 -34.225300 -0.184124 -0.977883 0.099216
23.799841 -48.496189 -22.422951 0.679640 0.064474 0.730707
37.578091 -44.762978 -47.924816 -0.621241 -0.444343 -0.645460
28.112829 -49.164093 -29.231489 -0.086142 -0.899034 -0.429323
30.975201 -49.004745 -39.191387 0.507736 -0.815517 0.277735
24.223330 -49.182507 -25.529619 -0.587052 0.756303 -0.288748
38.713257 -45.268761 -40.866711 0.767680 -0.417213 0.486416
28.073629 -48.100193 -47.442127 -0.861238 -0.366728 0.351824
26.642056 -50.386608 -28.825258 0.443058 -0.838143 0.318143
21.530174 -45.086021 -21.042397 0.460873 0.191080 0.866651
30.834730 -46.230820 -58.790382 0.589315 -0.730697 -0.344659
34.147175 -44.422260 -26.531160 0.554701 -0.824379 0.112725
33.515339 -47.446899 -31.319763 -0.313073 -0.821895 -0.475893
29.078125 -46.448547 -51.955353 -0.287886 0.585968 -0.757471
24.408766 -51.861073 -23.718756 0.383423 -0.849677 0.361989
34.526169 -46.455452 -30.728067 0.494632 0.535608 0.684444
29.848335 -50.444241 -35.666290 -0.692695 0.692962 -0.199943
19.650295 -46.905556 -22.431784 -0.447582 0.884633 -0.130749
28.378771 -50.139652 -33.209843 -0.482409 0.528294 -0.698704
28.194555 -50.741673 -31.250040 0.446376 -0.760520 0.471548
34.147732 -47.045593 -37.799133 0.715044 0.670763 0.196949
27.541744 -43.139072 -26.037247 -0.263177 0.868969 -0.419083
25.003056 -46.428932 -25.021942 -0.597917 0.767816 -0.230118
38.338036 -43.340099 -48.333771 -0.301922 0.152595 -0.941041
30.869539 -47.059685 -29.677160 -0.085290 -0.996287 0.011703
29.795710 -51.695885 -39.209179 -0.143891 -0.979582 -0.140405
29.796190 -42.894657 -60.977627 -0.674960 -0.175994 -0.716558
26.733694 -48.836502 -28.545443 -0.675432 0.507019 -0.535466
37.966068 -44.252598 -44.219925 -0.794149 0.587682 0.154781
22.985325 -47.169144 -23.362852 -0.117678 -0.732042 -0.671019
33.007977 -46.418037 -51.677422 0.643205 0.496705 0.582728
29.115549 -49.907318 -41.418468 -0.380702 0.923863 -0.039289
35.882874 -44.570164 -35.265068 0.329350 -0.448336 -0.830977
31.347515 -46.364738 -51.082588 0.208800 0.816806 0.537801
38.701416 -45.434711 -44.595570 0.289215 -0.951690 0.103154
33.208054 -47.011929 -36.641682 0.548867 0.127374 0.826148
31.837564 -46.979134 -38.059410 -0.589823 -0.162734 -0.790965
29.040825 -45.955173 -33.736450 -0.204683 0.978473 -0.026362
28.825445 -51.498898 -44.528225 -0.000509 0.552348 -0.833614
30.856375 -51.513382 -35.164745 0.455265 -0.854558 0.249930
22.276449 -48.467903 -21.620459 0.691552 0.640395 0.334141
28.501675 -45.079338 -27.385876 -0.276776 0.358926 -0.891385
27.756845 -48.020947 -32.672157 -0.880115 -0.418213 -0.224713
29.152565 -40.119396 -66.002396 -0.453220 -0.542287 0.707472
29.315775 -45.884918 -50.107254 0.577535 0.808265 0.114721
17.859015 -49.757374 -23.548183 -0.904515 -0.419162 -0.078460
38.733067 -44.258373 -41.132301 0.419394 0.738546 0.527881
25.034334 -45.798557 -23.783508 0.523772 -0.475836 0.706572
32.084717 -45.986565 -31.074837 -0.224915 0.640628 -0.734172
29.687550 -50.350857 -41.895302 0.770346 0.538108 -0.342063
32.146107 -40.963882 -65.352509 -0.234513 -0.857942 -0.457098
38.196377 -45.148460 -44.133984 -0.696971 -0.694328 0.179278
26.965626 -47.007175 -26.064529 0.291427 -0.903601 -0.313968
29.667940 -51.130451 -35.203739 -0.822965 -0.567989 -0.010785
25.923176 -45.367424 -25.350464 0.135102 -0.883967 -0.447605
21.957834 -46.949120 -21.842619 0.030967 0.989939 -0.138062
29.854824 -50.068851 -39.887058 0.364236 0.931190 0.014719
19.002195 -49.092258 -25.619093 0.073875 -0.461774 -0.883916
31.029030 -45.346912 -54.934349 -0.413679 0.841889 0.346544
24.353945 -46.261131 -24.144997 0.289262 -0.847636 -0.444792
30.671844 -48.020737 -46.000599 0.161172 0.773624 0.612805
32.329964 -39.872585 -66.677429 0.480218 -0.039659 -0.876252
35.248085 -44.528969 -33.924225 0.061182 0.300973 0.951668
29.372295 -48.912628 -37.426361 -0.164045 -0.981293 0.100766
29.321720 -39.074535 -65.891273 -0.287720 0.540844 0.790383
32.275845 -46.927513 -55.310452 0.340063 -0.881851 -0.326643
30.316595 -49.562111 -40.536064 -0.450960 -0.877083 0.165411
29.740009 -43.040890 -23.934845 -0.433078 -0.220043 0.874085
22.959625 -47.530861 -22.127222 0.709876 -0.704090 0.018255
29.553869 -43.660625 -59.266403 -0.818064 0.345667 0.459658
38.001736 -44.670773 -42.792854 -0.972475 -0.094264 -0.213090
23.390390 -49.745289 -22.628725 0.658371 0.047890 0.751168
29.997065 -51.846127 -36.808361 -0.492531 -0.861105 0.126141
30.177275 -47.102695 -38.996510 0.041349 0.995388 -0.086561
29.491249 -38.753014 -67.355263 0.876454 0.383222 -0.291496
28.874556 -46.552273 -29.035807 0.214122 0.966766 0.139698
32.048695 -47.468941 -30.403660 -0.188838 -0.981793 -0.020563
22.201796 -45.071754 -22.888136 0.745710 -0.582359 -0.323689
28.565165 -47.593376 -37.455284 -0.944467 0.260766 -0.199957
29.413725 -45.459373 -27.440147 0.116046 -0.366561 -0.923129
20.818295 -48.936516 -20.565163 -0.055072 -0.346893 0.936286
33.330952 -40.367485 -65.546486 0.551414 -0.636054 -0.539794
29.923410 -46.725681 -55.831894 -0.723499 -0.574845 0.382235
31.054255 -50.511959 -42.476234 -0.228741 -0.887062 0.400997
25.771460 -47.019081 -24.477262 0.598799 -0.051774 0.799224
33.225811 -40.530792 -64.531258 0.606380 -0.728609 0.318483
30.382555 -45.567001 -26.112480 0.273601 -0.865662 0.419251
28.228374 -51.259892 -42.884277 -0.974378 -0.036834 0.221879
34.721725 -45.061684 -33.480110 -0.151475 0.799628 0.581077
20.580885 -43.447758 -22.699886 -0.838848 0.544120 -0.016330
22.397705 -46.699326 -23.292154 -0.826204 0.278099 -0.489947
33.323250 -45.739471 -53.869049 0.806744 0.589533 -0.040198
38.565044 -45.692532 -47.095959 0.131603 -0.913359 -0.385300
30.942450 -48.153103 -47.564930 0.765259 0.591765 -0.253364
20.270214 -48.475891 -24.629478 0.552922 -0.041883 -0.832180
35.545013 -45.748001 -33.125568 0.878315 0.340299 0.335796
31.457420 -45.217636 -26.918207 0.390056 -0.819254 -0.420333
30.724871 -44.858608 -58.216213 0.908242 0.230294 0.349372
31.334801 -48.319935 -51.972652 -0.089221 -0.954342 -0.285081
28.087866 -45.894749 -49.019653 -0.255870 0.944235 0.207245
32.448200 -45.700436 -52.331310 -0.067279 0.977336 0.200719
20.594006 -46.896687 -20.310781 0.174527 0.105146 0.979022
29.469275 -48.758343 -29.880764 0.564867 -0.819750 -0.094524
26.388485 -44.946938 -24.717150 0.668237 -0.362519 0.649645
29.677065 -40.513878 -66.646233 -0.162294 -0.980117 -0.114151
30.228004 -40.070534 -62.110630 -0.416911 0.864161 0.281800
24.307446 -42.652401 -23.872622 0.732470 -0.679989 -0.033219
31.562565 -47.699139 -41.758041 0.273199 0.878395 -0.392153
30.988285 -50.673908 -37.088985 0.576944 0.796979 -0.178777
27.554955 -50.745052 -30.128302 0.339107 -0.888793 0.308308
29.258860 -45.266891 -58.084057 -0.731826 0.555582 0.394663
24.716820 -44.702339 -24.137897 -0.410976 0.801543 0.434313
38.427608 -43.761421 -42.804176 -0.568393 0.821448 -0.046403
34.682026 -43.760666 -28.202921 -0.023437 -0.994524 -0.101850
32.474861 -44.535076 -26.851233 0.189485 -0.367169 -0.910650
26.585510 -49.139389 -25.042126 0.478362 0.449652 0.754309
24.326090 -45.191666 -24.963860 -0.604141 -0.045681 -0.795567
20.003534 -50.501781 -23.720255 -0.082046 -0.737876 -0.669931
21.393740 -43.079655 -22.006130 -0.280010 0.545608 0.789877
29.315029 -46.414921 -57.907238 -0.866912 -0.497585 -0.029549
28.906345 -48.639191 -48.266006 -0.296088 -0.804434 -0.514993
29.523581 -43.879681 -24.865589 0.165873 -0.936087 0.310204
39.005039 -45.327492 -42.512459 0.334025 -0.942469 -0.013399
18.664120 -49.943241 -24.766344 -0.393834 -0.736553 -0.549895
22.327600 -48.123238 -22.718897 -0.639878 0.696523 -0.324673
29.705996 -42.599472 -25.404816 0.153980 0.726625 -0.669556
32.434189 -48.050980 -51.643532 0.492014 -0.803753 0.334520
28.692030 -49.917030 -31.024204 0.814347 -0.178689 0.552185
20.719629 -44.225769 -23.560526 -0.753630 0.091504 -0.650898
30.204435 -41.705273 -62.851486 -0.644976 -0.675531 -0.357302
30.167620 -50.345238 -38.364258 0.228629 0.973501 0.005045
31.838446 -50.844658 -43.418659 0.395064 -0.870076 0.294773
30.026594 -49.998852 -32.456863 0.777876 0.239556 0.580967
31.180155 -51.010216 -35.862507 0.993192 0.116373 -0.005150
27.861595 -47.757198 -26.285931 -0.293768 0.079513 0.952564
29.284185 -43.823841 -26.118341 0.481218 -0.294107 -0.825791
31.729191 -49.102474 -40.615421 0.679137 -0.582959 0.446017
30.681696 -45.537975 -29.710758 -0.067707 0.989927 -0.124340
23.379036 -50.482418 -25.670511 -0.647276 0.017753 -0.762049
31.150915 -40.116497 -65.160515 -0.788075 -0.513757 0.339104
31.912415 -44.003918 -25.630892 -0.284484 0.514156 0.809143
30.236456 -50.004593 -35.193066 -0.023373 0.955916 -0.292709
28.967285 -46.372356 -35.550468 -0.644930 0.716646 -0.265488
28.025265 -46.666775 -51.271919 -0.810440 0.108834 -0.575623
31.288330 -46.667454 -30.908016 -0.473697 -0.465014 -0.747913
25.952326 -50.410690 -29.219431 -0.412695 -0.885852 -0.212013
28.669741 -44.462280 -26.777021 -0.337306 0.940220 0.047017
31.649620 -48.892479 -43.935760 0.272902 0.936240 -0.221314
30.362089 -39.907192 -67.244141 0.303426 -0.232527 -0.924048
29.889360 -48.182865 -32.035629 0.830572 -0.555375 0.041338
27.045404 -46.390453 -25.116852 0.459847 -0.036009 0.887268
35.035149 -44.941658 -40.826473 -0.721104 0.691810 0.037513
26.007620 -48.556786 -27.848928 -0.303967 0.915994 -0.261836
35.036667 -48.607079 -39.410580 0.704987 -0.681118 0.197662
28.048975 -49.887802 -29.760630 0.834843 -0.076519 0.545144
34.196835 -46.740204 -41.333591 -0.777490 0.132594 -0.614758
31.945105 -45.260777 -55.670456 0.315900 0.943761 -0.097581
30.261570 -49.794819 -43.295475 -0.995381 -0.095750 -0.006934
22.883945 -51.338467 -22.170954 0.216317 -0.659144 0.720234
37.267334 -45.494377 -41.701824 -0.268158 -0.493468 -0.827394
24.251804 -51.605026 -25.579432 -0.187586 -0.860817 -0.473081
31.475595 -43.571449 -59.353809 0.842378 0.100450 0.529443
31.112480 -51.144512 -37.508911 0.968615 0.117641 -0.218963
38.292656 -45.356998 -42.400150 -0.318199 -0.890950 -0.323971
27.062555 -49.893608 -31.764135 -0.818410 0.074434 -0.569793
29.793785 -49.060226 -38.936436 -0.383882 -0.923361 -0.006252
30.495399 -45.527393 -60.170860 0.286070 -0.677814 -0.677298
18.683310 -46.890610 -23.197746 -0.644283 0.754630 -0.124231
27.686850 -38.406551 -68.123871 -0.930232 -0.131468 -0.342615
22.320330 -41.988125 -22.358942 -0.184446 0.413455 0.891647
17.969496 -48.509888 -22.044033 -0.825351 0.061823 0.561226
37.442348 -44.155231 -34.234673 0.266486 -0.798985 0.539081
30.080296 -50.372513 -46.704590 -0.554976 -0.803894 -0.213908
37.648628 -45.111626 -40.052567 0.325716 -0.288288 0.900444
31.850904 -42.343327 -60.520981 0.957761 -0.213708 -0.192411
24.774925 -47.830650 -23.159550 0.687594 0.022987 0.725732
32.456547 -41.159931 -64.695709 0.556426 -0.830478 -0.026395
25.414425 -45.020756 -25.523180 -0.562615 -0.255927 -0.786108
31.456280 -47.244678 -37.044125 -0.464879 -0.874852 -0.136095
33.550255 -47.419365 -30.478621 0.174291 -0.910046 0.376083
29.900009 -45.781189 -55.940022 -0.857366 0.197861 0.475157
27.029976 -47.389835 -31.249905 -0.992383 -0.017078 -0.122002
27.379845 -48.244499 -31.018837 -0.685467 -0.706892 -0.174470
29.552330 -51.827114 -43.073307 0.795740 -0.582686 0.165150
32.100216 -47.181095 -36.267807 0.113577 -0.699639 0.705412
20.165159 -45.360424 -20.785812 -0.469153 0.478258 0.742404
30.408936 -46.196842 -34.648140 0.574489 0.767909 0.283335
25.240610 -46.407143 -24.540840 -0.001857 0.785519 0.618835
30.335501 -47.823811 -34.000378 0.825428 -0.546657 0.140834
19.786135 -46.421638 -22.281216 -0.589245 0.052531 -0.806245
35.666988 -45.930374 -40.262379 0.316616 -0.203680 0.926428
29.090759 -45.811226 -27.868443 -0.514826 0.857293 -0.001388
31.458509 -44.464001 -59.884174 0.901545 -0.342649 -0.264212
29.124475 -50.646828 -34.006359 -0.848813 -0.135150 -0.511127
20.374186 -49.787315 -24.286861 0.040506 -0.284663 -0.957771
28.741995 -46.391483 -28.122292 -0.636722 0.757632 -0.143451
28.968515 -52.400921 -44.458752 0.577279 -0.597782 -0.556242
33.487888 -48.092316 -39.456390 -0.927000 0.019678 -0.374545
34.462318 -44.951530 -35.205788 -0.616748 -0.098791 -0.780937
22.169460 -51.340782 -24.481224 -0.446009 -0.544651 -0.710233
18.257015 -49.711662 -22.438057 -0.621905 -0.618246 0.480632
24.715956 -49.890068 -27.060900 -0.921056 0.117354 -0.371327
30.188656 -50.478935 -40.100010 0.889345 0.415498 -0.190861
28.858320 -51.119354 -32.409538 -0.048497 -0.994688 0.090798
33.860901 -43.951405 -27.360165 -0.226116 -0.669572 -0.707492
28.452311 -45.073032 -26.062117 -0.011759 0.584467 0.811332
30.841551 -45.191223 -57.570560 0.596288 0.802632 -0.014927
25.696825 -47.762573 -24.906294 0.615266 -0.769419 0.171585
21.799101 -47.712234 -22.075535 0.154275 -0.218069 -0.963662
30.659605 -43.145676 -58.985081 0.135368 0.417566 0.898507
39.608715 -44.676430 -42.915184 0.974111 -0.197201 0.110540
29.819870 -47.449127 -52.306759 -0.405400 -0.284505 -0.868739
33.232578 -47.583225 -38.858150 -0.492068 0.318348 -0.810262
26.538500 -44.182846 -24.998919 0.186793 0.456299 0.870000
29.174931 -48.333809 -39.096954 -0.909654 -0.279592 -0.307177
32.199993 -48.326595 -41.462288 0.934121 0.356653 0.014743
29.440809 -49.651058 -46.982330 -0.771457 -0.635798 -0.024788
23.981344 -41.195938 -24.762688 0.068357 -0.073563 -0.994945
35.254696 -46.366653 -34.282887 0.675085 -0.592330 -0.439778
23.301109 -47.269863 -24.102242 -0.617593 0.773115 -0.144468
23.993395 -42.339993 -24.640335 0.440741 -0.391486 -0.807766
24.102690 -46.591003 -23.508240 0.761862 -0.564312 0.317990
31.370834 -40.478840 -66.528252 0.050743 -0.872682 -0.485646
30.902115 -45.775383 -35.700123 0.413752 0.832981 0.367358
21.403715 -47.017773 -20.889729 0.721232 0.292734 0.627799
34.155880 -46.333004 -40.477264 -0.832278 0.527287 0.171115
29.420050 -50.371002 -38.945473 -0.631550 0.722407 0.281555
33.230518 -44.321922 -25.446739 0.224573 -0.505411 0.833143
31.821705 -40.872349 -61.257057 0.816602 0.503884 0.281534
33.376598 -47.107651 -52.235569 0.928475 -0.310343 0.204012
29.607790 -51.168392 -42.072029 0.901222 -0.432192 -0.031747
22.028234 -49.677013 -24.008186 -0.012706 0.633225 -0.773863
29.661060 -50.841232 -37.071712 -0.949033 0.286270 0.131860
32.356335 -45.996494 -55.887775 0.868843 0.066891 -0.490548
21.806145 -50.452404 -24.553885 -0.260815 0.176067 -0.949198
33.265083 -46.842815 -31.603668 -0.500588 -0.139457 -0.854379
29.957701 -45.760696 -27.803785 0.394786 0.701752 0.593033
30.057190 -47.094574 -31.632986 0.969852 0.185627 0.157892
29.423386 -47.717693 -49.920555 0.623568 -0.756433 0.197413
22.189295 -44.592190 -21.855270 0.894291 -0.246613 0.373398
29.728830 -47.160717 -48.469563 0.963273 0.174760 -0.203871
28.306145 -47.364510 -35.485760 -0.937859 0.199775 -0.283742
27.432995 -46.840916 -29.663219 -0.794831 0.604145 0.057023
35.886543 -44.831844 -41.777809 -0.242139 0.407513 -0.880512
28.181820 -46.854416 -47.462627 -0.530794 0.524581 0.665637
21.104031 -44.918934 -23.631319 -0.053089 -0.470608 -0.880744
30.531219 -43.951973 -26.831669 -0.201887 0.940583 -0.273030
28.979876 -49.110695 -27.762983 0.858226 -0.503123 0.101560
29.518604 -48.152519 -46.202923 -0.517878 0.263942 0.813718
36.015251 -44.474167 -40.286549 -0.197848 0.789636 0.580802
30.314514 -46.913261 -28.214493 0.737101 -0.601878 0.307287
19.391325 -47.575981 -25.844398 -0.060302 0.523555 -0.849855
25.989056 -51.414001 -25.368822 0.521861 -0.830175 0.196141
39.254307 -44.825584 -44.542488 0.931095 -0.360946 -0.052729
24.948305 -50.585575 -27.052914 -0.656922 -0.564431 -0.499871
32.436432 -46.484108 -38.058331 -0.152671 0.644608 -0.749114
32.616070 -43.821041 -26.737457 -0.258510 0.468826 -0.844615
31.661116 -51.081020 -45.102234 0.367389 -0.913220 -0.176224
33.958199 -48.514957 -40.249474 -0.528006 -0.651897 -0.544280
25.221991 -45.000298 -23.741936 0.232000 0.284102 0.930302
28.541044 -48.435711 -37.845650 -0.890574 -0.386905 -0.239127
37.274666 -44.089966 -47.445736 -0.930615 0.243119 -0.273585
24.583759 -48.077389 -25.055130 -0.023361 -0.687445 -0.725861
23.227449 -43.501881 -23.136705 0.799431 -0.552879 0.235021
29.372335 -48.554119 -33.585300 0.180793 -0.982873 0.035703
34.999474 -45.944481 -31.702122 0.310836 0.856051 0.412986
30.374861 -41.138359 -59.653343 -0.017709 0.702491 0.711472
29.538630 -42.829739 -60.257591 -0.981888 -0.039021 -0.185398
29.781574 -45.913288 -26.933270 0.317093 -0.941603 -0.113298
22.888515 -43.390892 -24.186024 0.398116 -0.653335 -0.643939
31.119350 -45.879456 -28.807487 0.569218 0.480033 0.667502
38.883877 -43.718822 -48.345936 0.367531 -0.408317 -0.835582
33.944672 -46.231075 -32.506382 -0.960151 0.178435 -0.215107
28.366026 -49.544247 -28.384647 0.359015 -0.880409 -0.309819
37.767857 -45.723576 -46.013802 -0.516558 -0.853847 0.064141
27.862274 -46.625465 -33.655392 -0.882518 0.427269 -0.196476
23.478910 -47.931335 -24.699705 -0.692479 0.053463 -0.719454
31.583740 -47.125572 -53.699104 -0.619627 -0.774257 -0.128796
32.184582 -45.509686 -53.457630 -0.250976 0.939214 0.234284
31.673294 -40.536144 -65.653954 -0.434541 -0.887969 0.150613
31.306675 -47.661423 -52.792381 -0.580660 -0.461938 -0.670408
30.866070 -51.734249 -37.213337 0.634215 -0.766924 -0.097973
23.286940 -47.519199 -22.987976 -0.094909 0.836540 0.539624
30.726730 -44.524960 -27.379023 0.119630 0.167131 -0.978650
31.409031 -47.203625 -40.483883 0.425647 0.903230 -0.054772
28.597605 -39.482723 -68.011559 -0.025394 -0.637226 -0.770259
24.297140 -41.277458 -22.656513 0.416791 -0.297066 0.859091
28.240345 -48.641624 -26.263187 0.336763 0.010112 0.941535
39.456024 -44.148064 -43.640903 0.890543 0.438596 -0.120695
30.158035 -40.010323 -63.711693 -0.727894 0.677044 -0.108544
30.510824 -46.593960 -37.037373 -0.415822 -0.137012 -0.899066
19.589085 -47.012203 -20.582123 -0.647703 0.097182 0.755670
22.409075 -48.936871 -23.368410 -0.334274 0.627382 -0.703315
39.001911 -43.864773 -46.243568 0.568833 0.614706 0.546411
31.114155 -41.684700 -64.078659 -0.042107 -0.941864 -0.333346
30.071730 -46.077976 -30.115171 -0.672021 0.329844 -0.663016
25.854620 -50.779770 -27.495113 0.109932 -0.948534 -0.296982
35.356731 -43.853580 -30.166201 -0.005588 -0.984639 -0.174511
31.253099 -46.984646 -54.810322 -0.383291 -0.891899 0.240008
28.203985 -49.127846 -31.007214 0.435354 0.889907 0.136137
19.474985 -45.936985 -21.316725 -0.942276 0.333905 0.024974
30.659636 -49.247665 -44.646042 -0.663266 0.736727 -0.131572
27.306980 -47.763485 -26.562204 -0.316675 0.732629 0.602471
35.709320 -46.336578 -41.440868 0.530519 -0.590160 -0.608491
28.459505 -46.964241 -26.325039 -0.267090 0.564690 0.780889
30.850904 -47.643234 -36.662048 0.969185 -0.225557 0.099022
29.296610 -46.604507 -47.612125 0.348722 0.828238 0.438651
29.679476 -41.665527 -59.920467 -0.820032 0.365486 0.440417
32.465164 -43.517361 -26.161921 -0.475925 0.878139 0.048654
27.388945 -49.191444 -29.223227 0.488608 0.461367 -0.740542
21.599665 -46.573799 -21.640301 0.977947 -0.094474 -0.186266
27.226625 -50.030807 -25.446341 0.732542 -0.282168 0.619486
21.871586 -48.504677 -20.734097 0.639827 -0.067452 0.765553
28.189495 -52.162567 -44.329411 -0.892350 -0.088756 -0.442531
32.600353 -46.076717 -37.130562 0.415516 0.904086 0.099874
34.717125 -48.722221 -40.174015 0.422936 -0.803563 -0.418822
32.179836 -49.439758 -44.441647 0.918900 0.388454 -0.068746
29.848949 -48.436527 -41.337368 -0.937049 0.151652 -0.314547
25.929970 -44.259533 -26.360062 -0.550142 0.081847 -0.831051
36.005825 -46.248932 -40.851673 0.535707 -0.829130 0.159882
30.164524 -40.959530 -64.252289 -0.801871 -0.198935 -0.563407
32.662170 -47.942101 -38.336926 -0.709596 -0.587764 -0.388596
22.096525 -42.832157 -24.470541 -0.454454 0.041234 -0.889816
27.363840 -50.753456 -31.105534 -0.412404 -0.900238 -0.139621
23.507860 -49.139095 -24.102606 -0.294757 0.614635 -0.731670
35.458714 -47.101158 -31.490494 0.854575 -0.270258 0.443467
32.245300 -50.143688 -45.980583 0.901431 -0.342407 -0.264914
35.481483 -47.027615 -40.226574 0.930574 -0.220339 0.292374
29.520220 -45.341167 -60.080322 -0.484383 -0.583156 -0.652152
30.265169 -47.489346 -40.955753 -0.408910 0.839936 -0.356792
19.086740 -48.418526 -21.126778 -0.607756 -0.177296 0.774079
25.021080 -49.047989 -27.399376 -0.722609 0.688495 -0.061736
33.963554 -48.110180 -37.181087 0.452642 -0.600891 0.658821
28.570040 -52.295647 -43.016098 -0.295564 -0.865872 0.403619
30.204840 -50.041481 -45.089523 -0.941840 0.086876 0.324637
23.932211 -49.024696 -23.712980 0.890020 -0.455546 0.018502
34.205856 -44.998669 -33.964844 -0.740180 0.595963 0.311387
31.425434 -46.109680 -53.690964 -0.919450 0.306237 0.246640
18.424080 -49.301662 -24.866421 -0.869679 0.055703 -0.490465
25.671064 -44.099136 -25.414827 -0.581626 0.812798 -0.032720
30.882910 -48.620449 -43.398647 -0.490211 0.755051 -0.435420
28.166969 -50.861664 -32.777817 -0.634282 -0.623339 -0.457313
29.231991 -44.334190 -59.798668 -0.991844 0.050920 -0.116843
23.494455 -45.863548 -23.162449 -0.087211 0.758115 0.646263
32.803474 -45.844601 -30.737808 0.237787 0.968452 0.074558
28.590059 -50.838867 -43.096001 -0.443055 0.813802 -0.376071
30.116240 -51.115269 -40.154377 0.809605 -0.511498 -0.287941
29.609514 -46.247147 -31.645033 0.574097 0.798079 0.182983
32.463810 -47.166523 -51.047096 0.552010 -0.076662 0.830306
29.623390 -49.560951 -33.327366 -0.037996 0.965407 -0.257963
37.629356 -44.074574 -35.090462 0.240269 -0.775994 -0.583185
20.792315 -47.105465 -22.564779 0.491235 0.516175 -0.701607
22.844866 -47.005878 -21.809477 0.609904 0.412053 0.676926
30.769545 -47.083927 -56.689590 -0.138760 -0.989619 -0.037415
21.170860 -46.497700 -22.447971 0.394093 -0.452324 -0.800058
39.262337 -44.459492 -45.627426 0.964807 0.260795 0.033668
26.996445 -45.148624 -26.282022 -0.507506 0.846159 -0.162640
32.228729 -50.380463 -43.406261 0.930168 -0.349071 0.113738
23.594481 -45.707653 -24.136251 -0.775325 0.487123 -0.401974
29.305676 -51.385490 -38.554443 -0.931015 -0.320430 0.174747
30.770741 -43.594604 -24.096371 0.101765 -0.886980 0.450456
31.023640 -47.322407 -36.271313 0.756065 -0.653617 0.033914
26.364475 -48.104652 -26.644169 -0.471626 0.879605 0.062161
32.423779 -46.207359 -29.586061 0.475963 0.499236 0.724032
26.012545 -49.993492 -29.949026 -0.790305 -0.214048 -0.574109
