ply
format ascii 1.0
element vertex 199
property float x
property float y
property float z
property float nx
property float ny
property float nz
end_header
66.879501 -29.279757 -124.595245 -0.550202 0.807612 0.212229
63.779091 -63.599361 -109.881485 0.594740 0.054624 0.802060
55.384739 -44.067997 -39.639297 -0.749133 0.599624 0.281515
75.127060 -37.674088 -57.186340 0.638478 -0.588592 0.495889
70.976379 -32.070744 -129.909393 0.986178 0.067378 -0.151368
85.057129 -65.833107 -65.624298 -0.163398 -0.443827 -0.881090
79.984100 -68.299210 -84.801178 -0.565354 0.799163 -0.204241
69.376488 -33.567608 -128.919617 0.188616 -0.856330 0.480752
54.571079 -59.018414 -117.487015 -0.788712 0.257293 0.558332
58.695469 -82.477592 -80.060379 0.861981 0.288129 0.417099
57.973850 -41.474003 -41.683525 0.816143 0.336748 0.469586
63.738522 -42.917580 -127.570496 -0.914027 0.188277 0.359314
75.162811 -33.034389 -61.885780 0.365746 0.914793 0.171416
82.287918 -74.238274 -79.420341 0.821314 -0.566637 -0.066067
80.768280 -27.893789 -81.595123 -0.966972 0.055263 -0.248819
61.883980 -67.199799 -106.373154 0.680575 -0.698592 -0.220878
65.270668 -53.756283 -37.026299 0.923474 0.321915 0.208725
59.824532 -67.574692 -108.134628 -0.232008 -0.914032 -0.332744
53.531700 -83.378090 -79.082390 -0.910196 -0.383815 -0.155659
61.479401 -80.847488 -85.057663 -0.441979 0.841863 -0.309713
58.803471 -34.902363 -50.579224 -0.043935 0.991369 -0.123520
69.640709 -29.625671 -125.641708 0.752457 0.630037 0.191995
66.578049 -60.426514 -113.094711 0.354147 0.899385 -0.256294
57.276630 -79.841316 -82.586563 0.169487 0.984954 0.033763
70.296402 -62.501122 -109.774017 0.197378 -0.648247 0.735403
69.932693 -60.068649 -39.776356 -0.308466 -0.302617 -0.901816
68.737396 -35.038193 -55.868591 -0.581372 0.810355 -0.073022
58.774422 -54.091095 -32.204514 0.638799 0.419253 0.645107
70.747032 -47.088772 -46.189774 0.776222 -0.496534 -0.388502
59.783699 -63.734486 -107.915466 -0.081334 0.900164 0.427890
64.733124 -38.416573 -129.577148 -0.013842 0.361770 0.932165
62.425819 -60.657127 -113.435326 -0.509209 0.851067 0.128027
64.376472 -80.904572 -89.711258 0.558015 -0.773787 -0.299788
69.285538 -35.464123 -132.533096 0.849061 -0.520433 -0.090805
67.893784 -46.313187 -47.375015 -0.372781 -0.556686 -0.742384
87.247704 -61.553776 -67.588608 0.456510 -0.647827 -0.609851
74.112091 -34.189968 -66.537987 -0.690366 -0.043421 -0.722156
87.236671 -30.793848 -85.677086 0.911666 0.406237 -0.061931
83.276466 -67.452660 -85.030327 0.480921 0.762739 -0.432372
66.968697 -46.267834 -43.771637 -0.904251 0.396409 0.158715
77.581787 -72.695305 -83.249359 -0.930349 -0.196710 -0.309445
71.560623 -58.757477 -38.395329 0.878594 0.316372 -0.357744
59.818932 -55.296928 -32.810017 0.993859 0.101447 0.044196
55.829380 -62.594303 -116.147400 -0.678124 -0.682219 0.273359
81.274239 -71.635674 -73.414246 -0.086357 0.931966 0.352110
60.653530 -77.210907 -91.687035 -0.536118 0.728578 0.426324
60.175789 -52.837635 -120.105652 -0.388631 0.921361 -0.007742
67.319519 -58.844585 -37.782009 -0.588174 -0.780282 -0.212629
78.274910 -33.343567 -72.605202 -0.839346 -0.538725 -0.072619
64.723442 -52.659966 -121.557587 -0.732697 0.444841 -0.515045
63.659931 -61.874268 -116.405724 0.539009 -0.143125 -0.830051
58.699070 -52.174896 -35.620941 0.849897 -0.027605 -0.526225
87.987343 -57.086815 -69.891129 -0.766712 0.640625 -0.041855
57.643440 -60.592636 -115.152634 -0.239247 0.585675 0.774432
57.534889 -75.688858 -97.535210 -0.813594 0.433009 0.388031
67.823441 -31.586718 -128.373703 -0.999925 0.011737 0.003548
69.123367 -32.831467 -133.255997 0.151288 0.487953 -0.859659
83.819748 -32.136860 -75.694611 0.710212 0.417099 0.567122
57.982498 -59.363991 -118.209221 0.808202 0.576053 0.122366
68.194389 -31.883396 -123.225822 0.322613 -0.098920 0.941348
58.733521 -78.879219 -92.249451 -0.872833 -0.207072 0.441909
78.452057 -34.696800 -66.806824 0.246028 0.936746 -0.248953
65.823036 -79.226852 -88.617111 0.930273 0.242751 -0.275073
74.901443 -36.081299 -63.138096 -0.222082 -0.972534 0.069692
61.144859 -76.919991 -97.381477 0.999214 0.002831 0.039532
54.407539 -81.848595 -77.083702 -0.639351 0.679249 0.360349
57.835201 -46.425755 -38.196407 0.987613 0.037673 -0.152319
82.858238 -30.460100 -80.929749 -0.429852 -0.870078 -0.241230
62.516159 -46.425629 -126.574547 -0.858313 0.301325 0.415334
67.603104 -51.643780 -42.419785 0.298009 -0.855306 -0.423841
86.489182 -31.393230 -86.269043 -0.395478 -0.836423 -0.379465
82.755737 -27.304571 -83.725487 -0.113437 0.767907 -0.630438
66.410950 -63.363079 -113.283897 0.600286 -0.736558 -0.311671
61.744629 -38.146622 -46.839073 0.653832 0.414629 0.632919
57.630058 -78.467026 -96.248421 -0.851968 -0.523392 -0.014498
69.493622 -49.600822 -41.557438 0.838430 -0.120244 0.531580
56.025009 -40.742413 -45.225899 -0.753027 -0.181712 -0.632400
61.301830 -62.968861 -113.274330 -0.867321 -0.319621 0.381572
73.645393 -37.711926 -59.776356 -0.145296 -0.899322 -0.412442
89.080406 -54.010715 -76.877113 0.324791 -0.687440 -0.649567
55.872429 -81.043381 -83.990837 -0.647737 0.338910 -0.682332
68.805656 -36.171501 -52.915127 0.210385 0.797984 0.564765
83.094223 -27.155029 -80.468475 0.279111 0.886561 0.368926
57.034401 -59.456768 -32.393089 -0.201744 -0.399391 -0.894308
63.350750 -54.804291 -38.277451 -0.337518 -0.372393 -0.864526
79.964790 -37.229012 -65.071327 0.796205 -0.248254 0.551749
67.401993 -53.454548 -119.014359 0.749272 -0.067307 0.658834
65.019028 -44.007084 -129.143097 -0.301684 -0.201024 -0.931974
62.475658 -68.074043 -102.543442 0.782135 0.267268 0.562878
61.272141 -55.578674 -33.353500 -0.665174 0.101497 0.739758
59.878738 -74.559959 -102.333244 0.193227 -0.555767 -0.808571
80.359138 -74.728218 -82.464012 0.359582 -0.878922 -0.313362
70.017342 -56.556873 -37.440865 0.701128 0.707698 0.087085
64.985336 -49.994991 -39.013577 -0.109630 0.811956 0.573331
66.632233 -33.316856 -131.995850 -0.788997 0.613429 0.034460
67.275017 -35.911221 -130.756302 0.108532 -0.424651 0.898828
62.853062 -66.259384 -104.956017 0.963787 0.238346 0.119606
67.874863 -60.290268 -111.282059 -0.554852 0.826861 0.091876
78.717278 -73.375420 -78.785156 -0.843046 0.322190 -0.430658
64.232109 -65.022423 -111.551132 0.595731 -0.799096 0.080932
68.355103 -56.137161 -39.136761 0.185644 0.548484 -0.815292
66.520073 -49.094101 -127.233215 0.851060 -0.163466 -0.498974
76.977310 -56.969677 -113.294884 0.793780 0.522297 0.311639
88.077621 -56.689865 -72.501144 -0.596821 -0.637529 -0.487197
66.958000 -39.928715 -49.026871 -0.506032 0.673635 0.538654
87.324852 -62.359146 -65.090599 0.732578 -0.160951 0.661381
62.345959 -53.541428 -118.202278 -0.097586 0.365070 0.925851
81.962578 -31.758526 -77.028046 -0.773926 0.620817 -0.124999
61.108250 -76.503845 -99.514252 0.745357 -0.573851 -0.339322
65.692436 -44.008541 -126.283356 0.261595 0.255086 0.930860
83.426399 -68.939346 -82.816750 0.592075 0.399506 0.699887
55.743511 -54.042469 -33.253155 -0.974522 0.075557 0.211181
78.472237 -37.183266 -66.942650 -0.380349 -0.840076 -0.386791
82.301498 -71.553154 -77.189438 0.734241 0.647585 -0.203774
61.992310 -55.421143 -118.192490 0.206040 -0.656940 0.725243
53.944489 -46.266174 -37.918858 -0.960639 0.010872 -0.277586
68.972427 -37.177788 -57.477520 -0.706542 -0.258604 -0.658728
59.422829 -38.483727 -46.941326 -0.273194 0.901328 0.336113
60.651081 -75.926949 -96.118797 0.353137 0.920945 0.164788
80.748154 -33.832466 -76.777649 -0.616607 -0.044968 -0.785986
63.919430 -55.728767 -33.151573 0.485469 0.403879 0.775372
60.319210 -71.497398 -99.711800 0.340118 0.412800 0.844936
61.369759 -83.100662 -85.478027 -0.404934 -0.558777 -0.723738
83.411163 -34.178379 -76.519646 0.356730 -0.925622 -0.126366
55.842770 -46.379452 -36.174126 -0.343512 0.541746 0.767144
66.331627 -31.601757 -123.789627 -0.668644 -0.638386 0.381286
73.426659 -59.498291 -114.169777 0.077504 -0.191629 -0.978403
67.107147 -44.162594 -127.411140 0.998825 -0.046841 -0.012435
65.634460 -81.669235 -83.683350 0.927324 -0.006169 0.374208
61.658131 -52.395504 -38.687180 -0.902693 0.241179 -0.356340
89.916100 -56.873444 -70.940125 0.943300 0.270333 0.192628
66.393883 -54.674786 -120.386658 0.175440 -0.973429 -0.147165
76.222748 -73.380119 -76.580513 -0.716919 0.694632 0.059272
70.966057 -37.680626 -53.675636 0.870733 -0.164395 0.463464
55.852699 -57.302063 -118.446358 -0.244381 0.600722 0.761190
79.151543 -71.089851 -81.688217 -0.513776 0.792572 0.328428
88.654999 -59.673840 -70.236053 0.066219 -0.697772 -0.713253
66.327827 -51.642841 -120.026184 -0.062287 0.934021 0.351747
65.520653 -58.599354 -33.024872 -0.038790 -0.641903 0.765804
66.933769 -38.790993 -131.581665 0.908219 -0.355892 0.220180
70.574348 -32.233322 -126.401695 0.664220 -0.617653 0.421088
63.437012 -58.943745 -33.822655 -0.563963 -0.821792 0.081263
62.857571 -49.158188 -127.338264 -0.563896 -0.556983 -0.609747
57.241581 -53.206615 -35.707779 -0.329793 -0.370744 -0.868208
56.577240 -44.623760 -40.443905 0.121577 -0.560537 -0.819156
63.351360 -59.694138 -115.993088 0.228032 0.864322 -0.448274
76.947983 -35.823837 -60.234478 0.951386 -0.244826 0.186885
74.537567 -35.321903 -57.763725 0.497331 0.699080 0.513759
75.223396 -32.596539 -66.156235 -0.010319 0.929277 -0.369239
82.201332 -72.058266 -82.070999 0.991748 -0.101304 0.078577
67.523514 -52.320248 -123.833183 0.784940 -0.490144 -0.378982
58.322559 -69.911926 -103.731071 -0.861025 -0.231615 -0.452758
70.845673 -45.559067 -45.308838 0.948346 0.190904 0.253368
55.869530 -55.601696 -33.331600 -0.804338 -0.108542 -0.584174
79.418480 -71.846916 -76.838310 -0.526780 0.849711 0.022254
70.455063 -60.506065 -109.632477 -0.068259 0.305558 0.949724
63.991341 -79.107506 -85.714577 -0.077274 0.948635 0.306789
63.674980 -63.971684 -114.080231 0.018958 -0.888551 -0.458387
56.433842 -60.933643 -118.820175 0.192766 -0.512069 -0.837034
65.979393 -49.489182 -43.489067 -0.793496 -0.018313 -0.608300
58.835979 -64.003082 -109.233505 -0.946290 0.305181 -0.106772
74.248283 -59.416698 -111.520699 0.651520 -0.384735 0.653836
63.179428 -37.961411 -132.439758 -0.890362 0.210851 -0.403482
84.180923 -64.476303 -64.611328 -0.661616 0.548403 0.511389
69.170929 -30.411364 -130.228317 -0.126846 0.845727 -0.518320
59.861801 -56.682728 -120.571663 0.504325 -0.749607 -0.428655
82.661636 -70.462112 -85.502228 0.563540 -0.284053 -0.775717
69.677071 -40.721165 -51.237831 0.887847 -0.329629 -0.321049
85.597153 -59.536942 -68.554276 -0.756011 0.074579 -0.650296
69.253197 -45.597755 -43.600983 0.273741 0.612655 0.741431
70.560028 -62.284767 -111.830772 0.567569 -0.522578 -0.636221
59.286160 -67.059372 -102.016159 -0.334014 0.699524 0.631744
86.670891 -58.340488 -67.520119 -0.271304 0.767299 0.581073
59.077629 -41.180378 -45.718430 0.653022 -0.756467 0.036334
66.425858 -56.981293 -38.634396 -0.552431 -0.352634 -0.755294
54.454922 -57.072708 -120.911072 -0.807059 -0.059657 -0.587450
69.162109 -38.920570 -54.570473 0.113102 -0.959166 -0.259244
66.862312 -49.350887 -124.011673 0.599051 0.627735 0.497078
80.163567 -30.962791 -74.153275 -0.213327 0.960659 -0.177839
59.329048 -65.018219 -111.120667 -0.813478 -0.118878 -0.569316
60.964130 -38.027412 -49.219765 0.012006 -0.331483 -0.943385
61.221512 -55.995926 -35.688564 -0.803243 -0.469004 -0.367200
61.630630 -80.949692 -88.354767 -0.873051 -0.486324 0.035654
72.753098 -34.264931 -59.911484 -0.729037 0.593743 -0.340550
57.763470 -75.379517 -100.888046 -0.619144 -0.568513 -0.541714
69.704918 -41.110821 -48.251225 0.727453 0.473119 0.496961
65.405907 -37.970013 -133.663773 0.310376 -0.289989 -0.905303
57.138241 -54.847282 -31.594568 -0.196078 0.412734 0.889497
72.093430 -57.962116 -112.219635 -0.205480 0.951546 0.228776
59.066959 -59.270691 -31.763449 0.576537 -0.376076 -0.725377
59.925491 -79.515366 -96.194786 0.182456 -0.935868 -0.301431
81.276817 -33.172096 -73.277519 0.904681 -0.118907 0.409162
59.280609 -53.783459 -122.619904 -0.326918 0.550426 -0.768215
57.277191 -46.770832 -36.248360 0.457838 0.560588 0.690019
84.163269 -30.035000 -80.491951 0.867941 -0.451736 0.206429
76.902367 -33.997292 -64.106361 0.861345 0.465102 0.204363
66.329933 -39.803410 -51.111378 -0.966890 -0.122850 -0.223676
55.954868 -38.990089 -44.018936 -0.516834 0.834162 0.192504
87.838013 -52.592785 -76.277695 -0.627993 0.771794 0.099789
